-0.305765 -0.084387 0.517975 0.986561 -0.075283 0.145015 2
-0.308687 -0.084418 0.535925 0.980528 -0.048783 0.190224 2
-0.312327 -0.078680 0.550070 0.965096 0.047279 0.257595 2
-0.316202 -0.085119 0.569450 0.966291 0.157839 0.203393 2
-0.323031 -0.085486 0.641624 0.994261 -0.046294 0.096444 2
-0.328951 -0.085821 0.680094 0.955532 -0.162867 0.245831 2
-0.332850 -0.085852 0.693613 0.947296 -0.073294 0.311864 2
-0.340159 -0.086004 0.725704 0.987776 0.115259 0.104952 2
-0.345087 -0.080328 0.774784 0.988835 0.026515 0.146635 2
-0.360468 -0.086828 0.837067 0.944300 0.009534 0.328948 2
-0.364618 -0.086859 0.849895 0.956073 -0.147286 0.253439 2
-0.368365 -0.086951 0.865652 0.970916 -0.144554 0.190857 2
-0.375368 -0.075262 0.937551 0.992371 -0.042153 0.115858 2
-0.382700 -0.087958 0.973894 0.981236 -0.050080 0.186195 2
-0.385859 -0.088110 0.993839 0.988763 -0.041087 0.143732 2
-0.388827 -0.088293 1.014795 0.983191 0.040718 0.177980 2
-0.392412 -0.088385 1.032106 0.960603 0.057157 0.271984 2
-0.396486 -0.088385 1.045175 0.972747 -0.055175 0.225210 2
-0.399759 -0.088568 1.064176 0.983739 -0.109946 0.142018 2
-0.411028 -0.089300 1.148596 0.923017 0.349058 0.161857 2
-0.436556 -0.090765 1.307308 0.989428 0.045947 0.137555 2
-0.444452 -0.090857 1.336420 0.955863 -0.130768 0.263110 2
-0.448191 -0.090918 1.352081 0.979019 -0.107018 0.173402 2
-0.450762 -0.091192 1.375070 0.996081 -0.031207 0.082755 2
-0.452379 -0.091528 1.404808 0.997310 -0.024522 0.069077 2
-0.454561 -0.091833 1.430731 0.994089 0.038025 0.101689 2
-0.457766 -0.092016 1.449726 0.974066 0.115919 0.194314 2
-0.465830 -0.092077 1.477060 0.921244 0.235979 0.309231 2
-0.470186 -0.092077 1.489630 0.954887 0.105162 0.277726 2
-0.474245 -0.092200 1.505060 0.977151 0.029407 0.210501 2
-0.477602 -0.092261 1.523867 0.986714 0.065067 0.148870 2
-0.480440 -0.092444 1.545935 0.992231 0.021134 0.122603 2
-0.487650 -0.086462 1.576668 0.984204 0.014165 0.176469 2
-0.490847 -0.093054 1.601532 0.991007 -0.021035 0.132143 2
-0.493349 -0.086828 1.625444 0.988467 -0.020000 0.150107 2
-0.496866 -0.093176 1.643991 0.988919 -0.009661 0.148139 2
-0.506571 -0.087591 1.699041 0.973038 0.112792 0.201186 2
-0.510363 -0.087683 1.714828 0.960475 0.014654 0.277980 2
-0.518564 -0.093848 1.740202 0.963460 -0.043453 0.264306 2
-0.522448 -0.093970 1.756489 0.984996 -0.044324 0.166785 2
-0.525065 -0.088019 1.780140 0.996518 -0.018545 0.081289 2
-0.528803 -0.095038 1.840235 0.991909 0.071334 0.105016 2
-0.532259 -0.095068 1.854879 0.964699 0.056158 0.257299 2
-0.539179 -0.095129 1.885355 0.984875 -0.115101 0.129508 2
-0.551569 -0.095923 1.969879 0.981539 -0.177847 0.070373 2
-0.553492 -0.096136 1.995918 0.993463 -0.056362 0.099273 2
-0.556208 -0.096441 2.017483 0.988112 0.044742 0.147078 2
-0.559359 -0.096564 2.036568 0.988692 -0.009969 0.149627 2
-0.562349 -0.096716 2.056749 0.978613 -0.174744 0.108540 2
-0.567339 -0.097296 2.104168 0.981264 -0.116948 0.153116 2
-0.570673 -0.097418 2.122744 0.994228 -0.019629 0.105474 2
-0.573183 -0.098303 2.186960 0.999176 0.005959 0.040149 2
-0.575388 -0.098608 2.213440 0.989500 0.094931 0.108981 2
-0.585352 -0.098944 2.267239 0.982736 0.017595 0.184174 2
-0.595865 -0.099341 2.319946 0.953302 0.103688 0.283662 2
-0.599932 -0.099432 2.335264 0.987985 -0.020006 0.153250 1
-0.602572 -0.099676 2.359598 0.995749 -0.047878 0.078685 1
-0.607264 -0.094000 2.407549 0.975919 0.014624 0.217644 1
-0.611521 -0.094000 2.419870 0.929441 0.047994 0.365837 1
-0.621348 -0.100043 2.436945 0.791185 0.100377 0.603284 1
-0.626429 -0.099921 2.443222 0.810844 0.057469 0.582434 1
-0.631472 -0.099798 2.451187 0.875140 0.013188 0.483690 1
-0.641230 -0.099859 2.472202 0.920142 0.149482 0.361931 1
-0.645785 -0.099646 2.485392 0.969334 0.034532 0.243308 1
-0.652559 -0.099859 2.522390 0.981699 -0.080852 0.172421 1
-0.260271 0.419000 1.644562 0.517456 -0.802062 0.298220 2
-0.248636 0.420709 1.629679 0.577317 -0.705510 0.411049 1
-0.295740 0.454157 1.750456 0.868438 -0.134917 0.477088 1
-0.244951 0.511530 1.651895 0.873335 0.177739 0.453536 1
0.613172 -0.108008 -0.045096 0.905241 -0.091258 0.414984 1
0.598440 -0.107825 -0.016142 0.842620 -0.134631 0.521408 1
0.603796 -0.101599 -0.023773 0.867726 -0.102910 0.486273 1
0.589216 -0.101385 -0.000412 0.847838 -0.132449 0.513447 1
0.579748 -0.101324 0.017309 0.894903 -0.053005 0.443102 1
0.574941 -0.101263 0.026815 0.896249 -0.023628 0.442921 1
0.565138 -0.107397 0.046610 0.909293 -0.066816 0.410758 1
0.560629 -0.107397 0.057400 0.922299 -0.121828 0.366772 1
0.556616 -0.101172 0.070120 0.909711 -0.121081 0.397197 1
0.551550 -0.107336 0.078804 0.861590 -0.112074 0.495079 1
0.546583 -0.107275 0.086506 0.797945 -0.021571 0.602344 1
0.541616 -0.100897 0.092779 0.811247 0.027068 0.584076 1
0.536535 -0.100775 0.100160 0.862131 0.024358 0.506099 1
0.531584 -0.106940 0.110161 0.906942 -0.009093 0.421157 1
0.522672 -0.106909 0.133242 0.934784 -0.186430 0.302361 1
0.514334 -0.106970 0.159937 0.960087 -0.122052 0.251667 1
0.510618 -0.107092 0.176111 0.929549 0.235768 0.283464 1
0.506346 -0.107092 0.188806 0.897347 0.327152 0.296211 1
0.367872 -0.154211 0.434481 0.878538 0.030566 0.476694 1
-0.268252 0.301294 1.194967 0.599672 -0.784439 0.158268 2
-0.205797 -0.067175 -0.485071 0.962659 -0.260369 0.074138 3
-0.206965 -0.067572 -0.452900 0.966878 -0.254399 0.020688 3
-0.207499 -0.068091 -0.416813 0.935664 -0.352723 -0.010892 3
-0.207720 -0.068701 -0.378775 0.850693 -0.524826 0.029639 3
-0.210100 -0.068915 -0.354244 0.846984 -0.529430 0.048191 3
-0.210894 -0.069464 -0.319761 0.961546 -0.274536 -0.007717 3
-0.207590 -0.064825 -0.221691 0.988788 -0.148144 -0.018751 3
-0.208704 -0.071478 -0.187670 0.982634 -0.185168 0.011935 3
-0.213770 -0.072577 -0.101151 0.995338 0.044859 0.085376 3
-0.217920 -0.073218 -0.048182 0.965201 -0.261416 0.006941 3
-0.216486 -0.067755 -0.001225 0.976344 -0.213669 0.033141 3
-0.225283 -0.068426 0.063352 0.976780 0.000591 0.214244 3
-0.229319 -0.074744 0.079689 0.959638 0.048675 0.276994 3
-0.242251 -0.074652 0.117197 0.981138 0.005614 0.193227 2
-0.247263 -0.075201 0.162704 0.992307 0.014564 0.122938 2
-0.250338 -0.069098 0.181152 0.981839 -0.001239 0.189712 2
-0.257204 -0.069342 0.217003 0.992120 0.097520 0.078657 2
-0.258158 -0.076025 0.251995 0.985205 0.152637 0.077933 2
-0.260821 -0.076300 0.274776 0.968176 0.087591 0.234441 2
-0.265497 -0.076239 0.284918 0.922539 0.044488 0.383331 2
-0.269915 -0.076269 0.296659 0.981490 0.011057 0.191192 2
-0.272478 -0.076544 0.320984 0.983540 0.124248 0.131193 2
-0.291506 -0.078009 0.447557 0.951499 0.121053 0.282835 2
-0.296038 -0.077429 0.463734 0.965506 0.039724 0.257331 2
-0.305231 -0.078100 0.519993 0.979739 -0.144868 0.138292 2
-0.308367 -0.078131 0.537306 0.963005 -0.159361 0.217314 2
-0.316721 -0.079108 0.565300 0.980981 0.111113 0.159152 2
-0.319384 -0.078772 0.588165 0.996770 0.016521 0.078589 2
-0.322420 -0.073004 0.641643 0.997776 0.006780 0.066315 2
-0.324846 -0.073248 0.664455 0.988927 -0.055684 0.137559 2
-0.328501 -0.079657 0.682373 0.971032 -0.089345 0.221615 2
-0.332689 -0.079687 0.694500 0.931628 -0.036060 0.361619 2
-0.337076 -0.079565 0.704498 0.956669 0.063056 0.284268 2
-0.340532 -0.079687 0.721926 0.989377 0.079026 0.122014 2
-0.342417 -0.080115 0.751627 0.996895 -0.001467 0.078722 2
-0.348841 -0.080389 0.789858 0.974098 -0.000237 0.226126 2
-0.352442 -0.080481 0.806475 0.974657 0.061512 0.215081 2
-0.356203 -0.080542 0.822245 0.959295 0.083411 0.269805 2
-0.360361 -0.080603 0.835594 0.956665 0.073068 0.281875 2
-0.364260 -0.080603 0.850454 0.973679 0.007878 0.227789 2
-0.367914 -0.080755 0.866878 0.977590 -0.067498 0.199405 2
-0.371309 -0.080878 0.884922 0.988551 -0.050324 0.142248 2
-0.373667 -0.081152 0.909904 0.996441 -0.026267 0.080097 2
-0.382174 -0.069281 0.971994 0.984420 -0.003979 0.175790 2
-0.392435 -0.082159 1.029575 0.976176 0.018526 0.216189 2
-0.399012 -0.082403 1.066847 0.978484 -0.184736 0.091881 2
-0.404040 -0.082922 1.112017 0.978233 -0.091249 0.186369 2
-0.407572 -0.083105 1.126148 0.967616 0.029026 0.250753 2
-0.411738 -0.082892 1.141781 0.959377 0.195889 0.203037 2
-0.415392 -0.083227 1.161465 0.977530 0.158596 0.138863 2
-0.420641 -0.083807 1.211914 0.992883 -0.045632 0.110009 2
-0.428087 -0.083838 1.241770 0.975688 -0.057536 0.211475 2
-0.431353 -0.083990 1.259802 0.988968 -0.016238 0.147238 2
-0.436884 -0.084448 1.303665 0.980977 0.123477 0.149792 2
-0.440294 -0.084631 1.322328 0.978803 0.100892 0.178229 2
-0.443972 -0.084723 1.338581 0.973486 -0.074377 0.216319 2
-0.450770 -0.084875 1.373594 0.996738 0.003780 0.080620 2
-0.458376 -0.079443 1.442932 0.952704 0.166986 0.253913 2
-0.466135 -0.085791 1.473726 0.964006 0.075230 0.255014 2
-0.470148 -0.085852 1.488428 0.969468 -0.018514 0.244517 2
-0.474016 -0.085882 1.504518 0.977236 -0.042989 0.207753 2
-0.477411 -0.085974 1.522568 0.987046 -0.053799 0.151146 2
-0.480265 -0.086188 1.544369 0.979950 -0.015791 0.198618 2
-0.503069 -0.087408 1.681497 0.983666 0.064794 0.167938 2
-0.522013 -0.081457 1.758533 0.983656 -0.080230 0.161199 2
-0.532328 -0.088751 1.851974 0.967888 0.132012 0.213929 2
-0.529345 -0.082342 1.830730 0.982734 0.099095 0.156252 2
-0.535662 -0.088843 1.867966 0.984125 0.034657 0.174058 2
-0.538538 -0.088965 1.888643 0.987718 -0.100339 0.119772 2
-0.541346 -0.089209 1.911228 0.982067 -0.116628 0.148130 2
-0.541002 -0.083044 1.912277 0.976844 -0.103669 0.187158 2
-0.548418 -0.089453 1.947708 0.974245 -0.190151 0.121201 2
-0.550539 -0.089758 1.974934 0.980496 -0.176892 0.085656 2
-0.553141 -0.090002 1.997097 0.984642 -0.111394 0.134429 2
-0.556261 -0.090185 2.015875 0.984336 -0.054887 0.167541 2
-0.561808 -0.090552 2.058878 0.994731 -0.029683 0.098128 2
-0.563997 -0.090857 2.084454 0.987543 -0.113410 0.109076 2
-0.570414 -0.091192 2.122744 0.985540 -0.069657 0.154462 2
-0.572565 -0.091467 2.148832 0.998951 0.007551 0.045163 2
-0.573527 -0.092016 2.183239 0.993154 0.100155 0.060113 2
-0.576159 -0.085943 2.204775 0.990379 0.100854 0.094756 2
-0.578577 -0.092474 2.231056 0.985025 0.104655 0.137018 2
-0.581682 -0.092596 2.250174 0.984047 -0.017960 0.177000 2
-0.585024 -0.092749 2.267483 0.980291 -0.093386 0.174095 2
-0.588190 -0.092871 2.286671 0.984625 -0.036125 0.170902 2
-0.591692 -0.093024 2.304352 0.968504 0.036903 0.246247 2
-0.595949 -0.093176 2.318592 0.961448 0.047801 0.270799 2
-0.602144 -0.093451 2.361143 0.992819 -0.083059 0.086089 1
-0.604090 -0.093756 2.388693 0.993397 -0.069038 0.091629 1
-0.616236 -0.093909 2.429668 0.872897 -0.035105 0.486640 1
-0.621149 -0.093786 2.437084 0.806049 -0.077580 0.586742 1
-0.626162 -0.093664 2.443695 0.812365 -0.153632 0.562548 1
-0.631167 -0.093603 2.451622 0.861518 -0.067434 0.503230 1
-0.641100 -0.093390 2.469896 0.910289 0.055603 0.410222 1
-0.645510 -0.093390 2.483675 0.978727 -0.021252 0.204061 1
-0.648707 -0.093512 2.504717 0.982391 -0.089803 0.163837 1
-0.409449 0.412042 1.844326 0.576299 -0.811462 0.097001 2
-0.246378 0.448297 1.654310 0.917838 -0.009210 0.396847 1
-0.168261 0.514948 1.489767 0.868941 0.004134 0.494898 1
0.608732 -0.101629 -0.033577 0.905430 -0.106136 0.411014 1
0.584486 -0.101355 0.007891 0.872742 -0.123154 0.472392 1
0.551931 -0.101141 0.079471 0.863555 -0.073730 0.498835 1
0.531782 -0.100744 0.109909 0.915884 -0.064891 0.396163 1
0.532186 -0.094580 0.110899 0.936220 -0.138829 0.322829 1
0.519598 -0.094610 0.150423 0.943189 -0.143467 0.299687 1
0.510488 -0.100806 0.173733 0.934310 -0.026181 0.355498 1
0.505804 -0.100744 0.183906 0.905791 0.099845 0.411794 1
0.725958 -0.072088 -0.260689 0.888950 0.022309 0.457461 1
0.743093 -0.067724 -0.292181 0.873830 -0.118664 0.471529 1
-0.441179 0.185022 1.452827 0.932466 -0.290296 0.215024 2
-0.436396 0.182489 1.425726 0.865320 -0.441462 0.237343 2
-0.435824 0.187311 1.434376 0.817778 -0.530873 0.222288 2
0.531660 -0.107184 0.543012 0.232437 -0.407300 0.883221 2
-0.206957 -0.061316 -0.454388 0.970393 -0.238919 0.035428 3
-0.204409 -0.061102 -0.477909 0.916343 -0.388780 0.095742 3
-0.204569 -0.062262 -0.400030 0.929159 -0.368081 -0.034360 3
-0.203997 -0.062933 -0.357012 0.845110 -0.534526 0.008494 3
-0.206385 -0.063208 -0.332512 0.749578 -0.657597 0.075493 3
-0.208613 -0.063483 -0.307003 0.924362 -0.380572 0.026837 3
-0.208788 -0.064062 -0.268610 0.983574 -0.179910 -0.014618 3
-0.207949 -0.065375 -0.184536 0.997785 -0.041278 0.052156 3
-0.213816 -0.066351 -0.102947 0.996700 0.008096 0.080773 3
-0.216036 -0.066656 -0.077423 0.980143 -0.194691 0.037613 3
-0.214998 -0.061102 -0.032580 0.978735 -0.205076 0.004547 3
-0.218699 -0.068060 0.024378 0.988447 -0.104915 0.109384 3
-0.221689 -0.068243 0.045326 0.983925 -0.064702 0.166447 3
-0.229243 -0.068518 0.079161 0.958834 -0.043874 0.280559 2
-0.233614 -0.068396 0.092211 0.934518 -0.039017 0.353770 2
-0.238016 -0.068426 0.103329 0.943036 -0.132386 0.305216 2
-0.241839 -0.068457 0.117420 0.979777 -0.059763 0.190961 2
-0.247278 -0.068915 0.160992 0.990124 0.057670 0.127781 2
-0.261133 -0.069983 0.271280 0.971828 0.152870 0.179389 2
-0.265352 -0.070013 0.284277 0.951095 -0.010244 0.308729 2
-0.269259 -0.070074 0.299375 0.965004 -0.198804 0.171010 2
-0.272349 -0.070288 0.323437 0.970534 -0.199383 0.135316 2
-0.275751 -0.070441 0.343391 0.986358 -0.016632 0.163769 2
-0.278414 -0.070624 0.362606 0.993240 0.076662 0.087164 2
-0.307726 -0.071783 0.539852 0.942279 -0.147546 0.300568 2
-0.312594 -0.072150 0.550945 0.930892 -0.074573 0.357602 2
-0.317133 -0.072302 0.564232 0.976158 -0.026990 0.215378 2
-0.319468 -0.072333 0.585300 0.996487 0.045539 0.070283 2
-0.328211 -0.073401 0.682720 0.967655 -0.011428 0.252020 2
-0.332583 -0.073462 0.693922 0.908762 0.083071 0.408963 2
-0.337214 -0.060827 0.699848 0.967957 0.059611 0.243937 2
-0.340594 -0.073462 0.720549 0.995190 -0.009842 0.097465 2
-0.342249 -0.073889 0.751148 0.994746 -0.035048 0.096185 2
-0.344896 -0.067877 0.772617 0.979633 0.016677 0.200103 2
-0.348948 -0.074133 0.787413 0.957742 0.150363 0.245194 2
-0.356287 -0.074286 0.819857 0.958003 0.167754 0.232570 2
-0.367693 -0.074499 0.866575 0.981658 0.001098 0.190646 2
-0.370997 -0.074682 0.885418 0.991516 -0.069471 0.109864 2
-0.373316 -0.074957 0.910488 0.990593 -0.109668 0.081846 2
-0.378740 -0.075415 0.955545 0.979527 -0.011850 0.200965 2
-0.382364 -0.075506 0.972196 0.976935 0.003917 0.213501 2
-0.392489 -0.075995 1.028227 0.981185 0.029775 0.190758 2
-0.395670 -0.076056 1.048031 0.985313 -0.120555 0.120929 2
-0.399584 -0.070441 1.099190 0.978270 -0.164448 0.126273 2
-0.403506 -0.076727 1.113022 0.958139 -0.104767 0.266447 2
-0.412172 -0.076819 1.140188 0.966004 0.025043 0.257313 2
-0.415690 -0.077032 1.159941 0.993722 -0.039507 0.104670 2
-0.420313 -0.077490 1.212910 0.982159 -0.059080 0.178534 2
-0.423861 -0.077643 1.228763 0.968531 -0.050254 0.243765 2
-0.434061 -0.077948 1.280079 0.986333 0.016971 0.163888 2
-0.437327 -0.078131 1.299030 0.971814 0.170129 0.163196 2
-0.440958 -0.072027 1.314978 0.978867 0.121548 0.164452 2
-0.450571 -0.078650 1.373403 0.986564 -0.068616 0.148268 2
-0.454828 -0.079352 1.426159 0.992486 0.022468 0.120280 2
-0.466082 -0.079565 1.473284 0.972590 -0.069642 0.221852 2
-0.473643 -0.079687 1.504814 0.970850 -0.085076 0.224082 2
-0.479838 -0.080054 1.545425 0.974511 -0.142324 0.173413 2
-0.487467 -0.080206 1.577558 0.983248 -0.078655 0.164428 2
-0.503023 -0.081213 1.679155 0.985199 0.023375 0.169814 2
-0.502794 -0.074866 1.679670 0.983614 -0.079316 0.161903 2
-0.510241 -0.081427 1.714308 0.974835 -0.101079 0.198695 2
-0.517817 -0.069006 1.743357 0.963917 -0.052939 0.260886 2
-0.526835 -0.082068 1.808298 0.996371 -0.010429 0.084479 2
-0.532709 -0.076178 1.845135 0.989199 0.027336 0.144004 2
-0.537996 -0.082800 1.891012 0.991712 -0.058076 0.114604 2
-0.544748 -0.083136 1.928314 0.986126 -0.019403 0.164859 2
-0.547701 -0.083319 1.950981 0.985853 -0.144457 0.085013 2
-0.548891 -0.077460 1.981621 0.982608 -0.151564 0.107288 2
-0.559298 -0.077826 2.032911 0.987662 0.014849 0.155893 2
-0.555987 -0.083929 2.016317 0.968241 -0.085811 0.234830 2
-0.561762 -0.084357 2.057737 0.994902 0.056423 0.083581 2
-0.563669 -0.084692 2.085234 0.996317 -0.013717 0.084646 2
-0.565973 -0.078680 2.108706 0.984915 -0.076071 0.155422 2
-0.572634 -0.085242 2.146667 0.997351 0.046041 0.056306 2
-0.574106 -0.085669 2.177803 0.991790 0.112108 0.061516 2
-0.581553 -0.086401 2.249130 0.990904 0.040318 0.128388 2
-0.584528 -0.086554 2.269245 0.980964 -0.126313 0.147491 2
-0.587816 -0.086706 2.287764 0.967326 -0.133279 0.215679 2
-0.591669 -0.086798 2.303530 0.963976 0.009712 0.265813 2
-0.595942 -0.086920 2.317846 0.972113 -0.018141 0.233810 2
-0.599474 -0.086981 2.336124 0.991331 -0.060267 0.116752 1
-0.603785 -0.087591 2.389183 0.992662 -0.040512 0.113938 1
-0.607004 -0.081549 2.405706 0.962693 0.028575 0.269084 1
-0.615984 -0.087683 2.429571 0.896843 -0.007983 0.442276 1
-0.620844 -0.087622 2.438429 0.833188 -0.122294 0.539297 1
-0.625574 -0.081366 2.447004 0.827105 -0.104926 0.552167 1
-0.635866 -0.087317 2.460768 0.826750 -0.094327 0.554606 1
-0.640856 -0.087225 2.468685 0.920488 -0.000029 0.390771 1
-0.648379 -0.087439 2.504139 0.985611 0.009632 0.168753 1
-0.652247 -0.093725 2.521925 0.979013 -0.033760 0.200983 1
-0.191294 0.495996 1.536304 0.895541 -0.023228 0.444373 1
-0.311533 0.487207 1.784765 0.927374 0.112362 0.356864 1
0.628088 -0.083258 -0.074072 0.909349 -0.075795 0.409071 1
0.609205 -0.095495 -0.033182 0.900722 -0.097722 0.423261 1
0.594427 -0.095251 -0.007160 0.850923 -0.152021 0.502812 1
0.584959 -0.095190 0.009302 0.844016 -0.219519 0.489334 1
0.580557 -0.088965 0.018652 0.847923 -0.137531 0.511969 1
0.575338 -0.095068 0.026531 0.891607 -0.071480 0.447134 1
0.570547 -0.095007 0.037054 0.918262 -0.108362 0.380859 1
0.561468 -0.095007 0.060091 0.921677 -0.064789 0.382510 1
0.557005 -0.094977 0.070795 0.904129 -0.079048 0.419883 1
0.552549 -0.088690 0.079721 0.807317 -0.048470 0.588124 1
0.541838 -0.094671 0.092489 0.792731 -0.028301 0.608915 1
0.536802 -0.094580 0.100344 0.881274 -0.092911 0.463383 1
0.524076 -0.088385 0.137438 0.946201 -0.091397 0.310403 1
0.515364 -0.094641 0.163324 0.936277 -0.125672 0.328013 1
0.515669 -0.088415 0.163668 0.916006 0.009419 0.401054 1
0.505903 -0.094519 0.182918 0.886320 0.037622 0.461542 1
0.665029 -0.062964 -0.142382 0.871838 -0.037106 0.488388 1
0.532667 -0.102820 0.545132 0.138722 -0.548690 0.824437 2
-0.202501 -0.055090 -0.467543 0.870762 -0.479592 0.108472 3
-0.205607 -0.055243 -0.447483 0.802472 -0.584545 0.119774 3
-0.206789 -0.057440 -0.297207 0.916363 -0.390608 0.087776 3
-0.203234 -0.057348 -0.314345 0.758005 -0.633840 0.153867 3
-0.207964 -0.057898 -0.264988 0.994644 -0.103351 -0.001162 3
-0.207094 -0.058630 -0.220163 0.999992 0.003943 0.000177 3
-0.207644 -0.052893 -0.185696 0.997237 -0.072592 0.015752 3
-0.209887 -0.059454 -0.158735 0.995974 -0.060437 0.066204 3
-0.211733 -0.059790 -0.130863 0.976007 -0.211160 0.053115 3
-0.213648 -0.054449 -0.065453 0.985531 -0.167605 0.025237 3
-0.217989 -0.061926 0.027536 0.963836 -0.234131 0.127291 3
-0.221300 -0.062048 0.046514 0.974104 -0.097741 0.203882 3
-0.224962 -0.056067 0.063732 0.966413 0.008880 0.256842 3
-0.229044 -0.062292 0.079908 0.965510 -0.042735 0.256834 2
-0.233271 -0.062262 0.093590 0.943960 -0.095541 0.315930 2
-0.241068 -0.056097 0.119074 0.951645 -0.059252 0.301430 2
-0.241366 -0.062262 0.118769 0.973036 -0.044191 0.226382 2
-0.244745 -0.062384 0.136049 0.987354 0.060039 0.146721 2
-0.247706 -0.062659 0.157041 0.980258 0.165351 0.108415 2
-0.257319 -0.063055 0.214706 0.985659 0.051000 0.160856 2
-0.259722 -0.063360 0.239103 0.980501 0.177922 0.083435 2
-0.261751 -0.063666 0.265812 0.974794 0.195719 0.107103 2
-0.265192 -0.063818 0.284485 0.980869 -0.106618 0.162878 2
-0.271761 -0.064215 0.329828 0.965789 -0.177678 0.188898 2
-0.275362 -0.064184 0.342356 0.955615 -0.005991 0.294556 2
-0.278391 -0.064276 0.355165 0.986104 0.111622 0.123042 2
-0.280443 -0.064673 0.383848 0.984038 0.158331 0.081249 2
-0.303942 -0.065680 0.524631 0.985339 -0.038340 0.166244 2
-0.307207 -0.065802 0.541454 0.952460 -0.057104 0.299265 2
-0.312258 -0.065649 0.552608 0.918078 -0.165372 0.360255 2
-0.319353 -0.065924 0.582701 0.995236 -0.001936 0.097476 2
-0.321184 -0.060034 0.605839 0.998230 0.017217 0.056926 2
-0.324625 -0.067053 0.663841 0.989139 0.027939 0.144306 2
-0.328089 -0.067236 0.681558 0.957951 0.101886 0.268234 2
-0.332575 -0.067236 0.692097 0.904570 0.180340 0.386304 2
-0.341837 -0.067663 0.752552 0.993888 -0.065146 0.089123 2
-0.349207 -0.067847 0.783926 0.930460 0.184028 0.316824 2
-0.353174 -0.067877 0.798225 0.954926 0.204489 0.215178 2
-0.356516 -0.068030 0.816675 0.973127 0.078423 0.216503 2
-0.363993 -0.061926 0.847015 0.975112 0.033654 0.219144 2
-0.367495 -0.062048 0.864523 0.982525 0.023025 0.184703 2
-0.372591 -0.068762 0.913486 0.988183 -0.136948 0.068841 2
-0.374895 -0.069067 0.938764 0.976746 -0.165194 0.136669 2
-0.378519 -0.069159 0.955255 0.963682 -0.144957 0.224287 2
-0.392580 -0.069708 1.026731 0.991862 0.012106 0.126739 2
-0.395266 -0.069830 1.049372 0.995633 -0.031470 0.087888 2
-0.397242 -0.070135 1.075334 0.984232 -0.151311 0.091610 2
-0.403032 -0.070532 1.115353 0.955617 -0.088941 0.280865 2
-0.407709 -0.070563 1.127054 0.932478 0.057487 0.356624 2
-0.412333 -0.064306 1.139410 0.973594 0.044739 0.223859 2
-0.415468 -0.070654 1.161926 0.994213 -0.063736 0.086478 2
-0.416880 -0.064734 1.191372 0.993965 -0.067543 0.086436 2
-0.429926 -0.052984 1.261215 0.985589 -0.032571 0.165993 2
-0.433893 -0.071722 1.279337 0.978992 -0.063724 0.193687 2
-0.444246 -0.065924 1.332464 0.984630 0.084002 0.153124 2
-0.447169 -0.072302 1.354713 0.987359 0.032888 0.155050 2
-0.450175 -0.072485 1.374491 0.992336 -0.070931 0.101183 2
-0.452051 -0.072821 1.402237 0.994701 -0.054156 0.087390 2
-0.454760 -0.066839 1.424175 0.980466 0.039488 0.192683 2
-0.458468 -0.066900 1.440370 0.976841 -0.006818 0.213860 2
-0.465662 -0.073340 1.475069 0.975214 -0.088486 0.202799 2
-0.469431 -0.073401 1.490692 0.965875 -0.052266 0.253682 2
-0.473322 -0.073462 1.504923 0.972440 -0.031572 0.231006 2
-0.486956 -0.074011 1.580170 0.961916 -0.177704 0.207701 2
-0.482577 -0.067724 1.568436 0.953754 -0.187289 0.235108 2
-0.490099 -0.074316 1.601444 0.989017 -0.006902 0.147639 2
-0.493143 -0.080725 1.624769 0.986202 0.048268 0.158353 2
-0.496630 -0.068426 1.640322 0.984845 0.031248 0.170597 2
-0.509974 -0.069159 1.717796 0.960160 -0.059097 0.273130 2
-0.521052 -0.069037 1.761295 0.986079 -0.077624 0.147050 2
-0.523829 -0.069342 1.784229 0.991375 -0.070256 0.110631 2
-0.526568 -0.075812 1.808245 0.991964 0.011688 0.125977 2
-0.529474 -0.069830 1.826094 0.979307 0.112371 0.168316 2
-0.535570 -0.076330 1.865614 0.991834 0.042580 0.120218 2
-0.540507 -0.070593 1.912399 0.978965 -0.030339 0.201758 2
-0.547182 -0.077093 1.951923 0.994645 -0.072461 0.073697 2
-0.551905 -0.077704 2.002474 0.970461 -0.122832 0.207646 2
-0.562319 -0.071722 2.051044 0.994480 0.063717 0.083359 2
-0.563692 -0.078406 2.083681 0.996066 0.059328 0.065825 2
-0.569155 -0.072607 2.126556 0.979917 -0.100156 0.172428 2
-0.572649 -0.079016 2.145401 0.995911 0.005405 0.090180 2
-0.576525 -0.073370 2.198500 0.996565 0.013116 0.081765 2
-0.578913 -0.079901 2.224503 0.993587 0.034656 0.107629 2
-0.581324 -0.080176 2.248701 0.992748 -0.077770 0.091675 2
-0.591501 -0.080603 2.303450 0.947297 -0.073546 0.311802 2
-0.595514 -0.074316 2.317287 0.978067 -0.055603 0.200734 2
-0.599100 -0.080725 2.336617 0.993185 -0.063254 0.097888 1
-0.603556 -0.081274 2.388750 0.993101 -0.010760 0.116767 1
-0.615839 -0.081488 2.428682 0.913306 0.093193 0.396469 1
-0.620630 -0.081488 2.438911 0.881526 0.022501 0.471598 1
-0.630594 -0.081274 2.454128 0.808867 -0.042577 0.586448 1
-0.635515 -0.074896 2.461185 0.830417 0.006244 0.557107 1
-0.640612 -0.081000 2.468575 0.899555 -0.058448 0.432879 1
-0.644968 -0.081061 2.481314 0.975064 0.023568 0.220670 1
-0.648386 -0.081244 2.501379 0.967595 0.143922 0.207475 1
-0.652117 -0.087652 2.520441 0.961062 0.143299 0.236274 1
-0.652369 -0.081396 2.516705 0.930927 0.254616 0.261811 1
0.599745 -0.089117 -0.014679 0.883292 -0.082729 0.461467 1
0.595304 -0.082892 -0.003372 0.872541 -0.191758 0.449334 1
0.590154 -0.089026 0.003841 0.850467 -0.274823 0.448529 1
0.585417 -0.089026 0.011618 0.813675 -0.232474 0.532812 1
0.575659 -0.088873 0.027017 0.894098 -0.107022 0.434896 1
0.557287 -0.088751 0.071012 0.899569 -0.045865 0.434363 1
0.561804 -0.088782 0.060207 0.946202 -0.003920 0.323554 1
0.542120 -0.088476 0.092745 0.809333 -0.110798 0.576806 1
0.537199 -0.088385 0.101345 0.890742 -0.168304 0.422199 1
0.532705 -0.088385 0.112627 0.921273 -0.184967 0.342115 1
0.519934 -0.088415 0.150972 0.949401 -0.050013 0.310058 1
0.510885 -0.088385 0.173141 0.891373 0.055121 0.449906 1
0.545309 -0.095434 0.546577 0.289077 -0.581440 0.760501 2
0.539450 -0.095160 0.549461 0.249051 -0.564792 0.786755 2
0.533377 -0.094885 0.550709 0.083665 -0.549715 0.831152 2
-0.200907 -0.049048 -0.459017 0.933090 -0.340760 0.114999 3
-0.196902 -0.049017 -0.473429 0.886644 -0.391852 0.245591 3
-0.202257 -0.049475 -0.428087 0.978222 -0.207127 -0.013432 3
-0.201754 -0.051367 -0.306549 0.937562 -0.275725 0.212021 3
-0.205439 -0.051428 -0.290152 0.928330 -0.354306 0.112560 3
-0.207094 -0.051764 -0.261145 0.987695 -0.154647 0.023302 3
-0.208834 -0.053320 -0.153668 0.921004 -0.389109 0.018588 3
-0.210169 -0.053686 -0.122606 0.876023 -0.480701 0.038855 3
-0.211825 -0.054144 -0.093529 0.947905 -0.312706 0.060759 3
-0.214136 -0.054999 -0.028238 0.990640 -0.136460 0.003453 3
-0.220797 -0.055914 0.048988 0.942441 -0.229836 0.242859 3
-0.228937 -0.056158 0.080009 0.966484 0.027998 0.255196 2
-0.233072 -0.056097 0.094450 0.957814 -0.020416 0.286663 2
-0.244982 -0.056158 0.133215 0.971485 0.100957 0.214536 2
-0.248369 -0.056341 0.151680 0.982134 0.146351 0.118295 2
-0.253466 -0.050513 0.196791 0.986804 0.086301 0.137005 2
-0.253550 -0.056738 0.197359 0.981163 0.009656 0.192940 2
-0.257319 -0.056830 0.213165 0.980643 0.027318 0.193891 2
-0.260409 -0.057013 0.233393 0.985345 0.128953 0.111655 2
-0.265238 -0.057623 0.285213 0.990312 0.094428 0.101807 2
-0.268244 -0.058020 0.314424 0.986349 -0.089843 0.137997 2
-0.271753 -0.058600 0.333820 0.961072 -0.050690 0.271607 2
-0.278429 -0.057837 0.351494 0.983319 0.038006 0.177876 2
-0.280939 -0.058172 0.373657 0.988079 0.120700 0.095561 2
-0.306933 -0.059759 0.540745 0.972667 0.044673 0.227867 2
-0.316164 -0.059576 0.565956 0.959943 -0.098859 0.262178 2
-0.319048 -0.059729 0.581266 0.990900 -0.047555 0.125923 2
-0.322481 -0.054175 0.633968 0.996468 0.033190 0.077136 2
-0.324747 -0.060827 0.660921 0.986334 0.099664 0.131198 2
-0.328257 -0.060980 0.678369 0.942517 0.206924 0.262382 2
-0.340243 -0.061041 0.720703 0.996614 -0.002535 0.082186 2
-0.341570 -0.061468 0.752655 0.996610 0.015211 0.080850 2
-0.344843 -0.061590 0.771219 0.948434 0.113694 0.295884 2
-0.349405 -0.061529 0.780973 0.923816 0.155907 0.349652 2
-0.353541 -0.061590 0.794199 0.965187 0.120648 0.232075 2
-0.353510 -0.055273 0.792801 0.979186 0.023624 0.201587 2
-0.360186 -0.061865 0.831499 0.975796 0.089273 0.199633 2
-0.367411 -0.055762 0.863340 0.993200 -0.033278 0.111562 2
-0.381769 -0.063116 0.973396 0.969334 -0.114400 0.217495 2
-0.385271 -0.063269 0.991865 0.977672 0.011250 0.209836 2
-0.392756 -0.063360 1.024010 0.984873 0.063736 0.161130 2
-0.395167 -0.063605 1.047605 0.996802 0.027493 0.075037 2
-0.396731 -0.064032 1.077059 0.997653 -0.018894 0.065818 2
-0.399195 -0.064306 1.101013 0.988607 -0.036086 0.146130 2
-0.402933 -0.064337 1.115524 0.940225 0.088253 0.328921 2
-0.407862 -0.064368 1.125835 0.909321 0.221682 0.352126 2
-0.412317 -0.057959 1.135229 0.991945 0.031809 0.122611 2
-0.419771 -0.064947 1.212337 0.978011 -0.052206 0.201913 2
-0.426790 -0.059057 1.242422 0.972006 -0.055672 0.228264 2
-0.433176 -0.059424 1.281700 0.978430 -0.075047 0.192466 2
-0.441034 -0.065741 1.313166 0.978977 -0.019631 0.203026 2
-0.449854 -0.066290 1.375034 0.995356 -0.027727 0.092177 2
-0.451800 -0.066626 1.402401 0.994461 0.027172 0.101537 2
-0.454905 -0.060614 1.421923 0.985199 -0.038298 0.167079 2
-0.465304 -0.067114 1.476034 0.973700 -0.053620 0.221434 2
-0.473162 -0.067297 1.504484 0.978103 -0.034299 0.205278 2
-0.476275 -0.067480 1.525715 0.987657 -0.098223 0.122010 2
-0.478945 -0.067908 1.552400 0.980442 -0.141871 0.136407 2
-0.486437 -0.067816 1.581976 0.970102 -0.071647 0.231881 2
-0.493456 -0.061957 1.618528 0.989217 -0.040407 0.140771 2
-0.505846 -0.068884 1.702232 0.972403 -0.122669 0.198456 2
-0.501894 -0.062567 1.684040 0.985731 -0.090870 0.141694 2
-0.526484 -0.069586 1.806600 0.986799 0.073258 0.144435 2
-0.532786 -0.063666 1.841244 0.991735 0.034367 0.123612 2
-0.535418 -0.070074 1.865318 0.995561 -0.050306 0.079547 2
-0.537279 -0.070410 1.892630 0.992381 -0.061806 0.106582 2
-0.546930 -0.070868 1.950951 0.997153 0.019587 0.072814 2
-0.548273 -0.071264 1.983177 0.995440 -0.044320 0.084469 2
-0.551409 -0.071539 2.004660 0.977739 -0.077503 0.194986 2
-0.555216 -0.071539 2.019033 0.957386 -0.085785 0.275776 2
-0.559221 -0.071600 2.032019 0.975863 -0.029939 0.216320 2
-0.565851 -0.072485 2.108000 0.991861 0.001826 0.127314 2
-0.572344 -0.072821 2.146267 0.993546 -0.056542 0.098334 2
-0.269228 0.374811 1.526281 0.578527 -0.815614 0.009027 2
-0.264498 0.378565 1.501078 0.522986 -0.852324 0.005370 2
-0.265528 0.374506 1.487129 0.570150 -0.791204 0.221189 2
-0.578798 -0.073645 2.223345 0.995659 -0.042882 0.082610 2
-0.583063 -0.074255 2.275927 0.985644 -0.131521 0.105868 2
-0.586725 -0.074347 2.292595 0.955954 -0.151190 0.251580 2
-0.598658 -0.074499 2.337378 0.993059 -0.049237 0.106819 1
-0.603579 -0.075140 2.386463 0.988750 0.066868 0.133795 1
-0.606989 -0.075232 2.404346 0.965339 0.102305 0.240112 1
-0.611193 -0.075232 2.416143 0.933674 0.091976 0.346113 1
-0.620608 -0.075232 2.437527 0.892388 0.147574 0.426457 1
-0.625490 -0.075232 2.446615 0.844889 0.075196 0.529630 1
-0.269030 0.321497 1.263040 0.434572 -0.870085 0.232591 2
-0.268137 0.325891 1.274967 0.422743 -0.864959 0.270433 2
-0.644777 -0.074835 2.481016 0.945597 -0.004060 0.325315 1
-0.648699 -0.074957 2.497248 0.949644 0.189437 0.249579 1
-0.653422 -0.068701 2.505779 0.912346 0.256242 0.319318 1
0.019300 0.324579 1.091062 0.391193 -0.847983 0.357620 2
-0.209742 0.298486 1.033670 0.224669 -0.953818 0.199387 2
-0.174151 0.301782 1.003521 0.163644 -0.966540 0.197538 2
-0.110605 0.299219 0.926552 0.089377 -0.954147 0.285685 2
-0.098276 0.299555 0.922575 0.107760 -0.947664 0.300533 2
-0.097079 0.303552 0.939537 -0.000299 -0.985381 0.170366 2
-0.085894 0.299829 0.920086 0.011840 -0.978275 0.206971 2
-0.092051 0.299707 0.921104 0.120074 -0.949098 0.291194 2
-0.190531 0.285547 0.950197 0.332385 -0.907662 0.256261 2
0.040075 0.285608 0.850128 -0.153582 -0.924353 0.349263 2
0.046408 0.285120 0.851658 -0.273239 -0.863974 0.422954 2
0.047277 0.289636 0.863026 -0.179691 -0.983043 0.036574 2
0.013197 0.280115 0.822456 -0.095022 -0.957858 0.271069 2
-0.153010 0.272791 0.860601 0.200257 -0.961605 0.187652 2
0.000219 0.262506 0.726541 0.137307 -0.982579 0.125238 2
0.006216 0.262689 0.723091 -0.018431 -0.990237 0.138170 2
-0.243571 0.230982 0.828318 0.530802 -0.798347 0.284414 2
-0.236948 0.236475 0.832884 0.424411 -0.849233 0.314130 2
-0.249247 0.229822 0.837522 0.639955 -0.742404 0.198225 2
-0.254717 0.228052 0.850563 0.663147 -0.734113 0.145994 2
-0.180208 0.244684 0.646446 0.325925 -0.937879 0.118976 2
-0.172915 0.248468 0.660892 0.288002 -0.954058 0.082629 2
-0.190905 0.240473 0.676081 0.507253 -0.861680 -0.014191 2
-0.185839 0.243341 0.656401 0.448676 -0.893112 0.032246 2
0.637487 -0.083533 -0.089739 0.850707 -0.054074 0.522851 1
0.017507 0.258478 0.706777 -0.172632 -0.977710 0.119502 2
0.022360 0.255213 0.686762 -0.082406 -0.990560 0.109542 2
0.031996 0.259363 0.737574 -0.089127 -0.988569 0.121606 2
0.633467 -0.070929 -0.082445 0.860154 -0.052357 0.507341 1
0.619451 -0.077063 -0.051022 0.917009 -0.101385 0.385767 1
0.595655 -0.076727 -0.002903 0.900965 -0.066081 0.428830 1
0.590559 -0.082922 0.006201 0.860145 -0.142793 0.489654 1
0.585707 -0.082892 0.013368 0.811278 -0.115021 0.573234 1
0.580915 -0.076666 0.020927 0.863560 -0.080126 0.497839 1
0.575888 -0.082709 0.028423 0.877420 -0.150603 0.455469 1
0.571241 -0.082617 0.038696 0.897258 -0.074214 0.435225 1
0.561971 -0.076269 0.056774 0.916665 0.041678 0.397476 1
0.561933 -0.082556 0.058679 0.937594 0.080260 0.338342 1
0.557539 -0.082556 0.070549 0.926139 0.056016 0.372999 1
0.552908 -0.082464 0.080166 0.832686 -0.065238 0.549889 1
0.542562 -0.082281 0.093897 0.830427 -0.181090 0.526874 1
0.537756 -0.082220 0.103275 0.883188 -0.290631 0.368120 1
0.529524 -0.076025 0.129122 0.854747 -0.298377 0.424711 1
0.528906 -0.082190 0.126734 0.904146 -0.200841 0.377072 1
0.524427 -0.082159 0.138075 0.938699 -0.089752 0.332850 1
0.520094 -0.082190 0.150417 0.922159 0.108574 0.371261 1
0.515661 -0.082190 0.162075 0.912040 0.155582 0.379444 1
0.546179 -0.089300 0.550434 0.290550 -0.511207 0.808856 2
0.540243 -0.088965 0.553129 0.234686 -0.462888 0.854785 2
0.534193 -0.088751 0.554394 0.050391 -0.458609 0.887208 2
-0.086634 0.271875 0.729895 0.174116 -0.982148 0.071204 2
-0.087816 0.268213 0.713386 0.111437 -0.963735 0.242479 2
-0.165125 0.272424 0.867218 0.175761 -0.942348 0.284759 2
0.039358 0.280725 0.841347 -0.301642 -0.858523 0.414670 2
-0.089136 0.286249 0.876495 0.174728 -0.965000 0.195563 2
-0.196230 -0.042883 -0.470707 0.941241 -0.301758 0.151683 3
-0.199450 -0.043005 -0.451504 0.940914 -0.331739 0.068049 3
-0.200648 -0.043432 -0.419512 0.960682 -0.277649 0.001402 3
-0.197787 -0.038122 -0.363648 0.992737 -0.116228 -0.031062 3
-0.197855 -0.050665 -0.361063 0.999167 -0.018525 -0.036358 3
-0.197619 -0.045050 -0.321674 0.991628 -0.113334 0.061879 3
-0.197878 -0.051275 -0.321737 0.996601 -0.042240 0.070729 3
-0.205782 -0.045721 -0.254385 0.946402 -0.318310 0.054787 3
-0.203615 -0.045386 -0.280417 0.875634 -0.476207 0.080571 3
-0.207201 -0.046118 -0.223896 0.980857 -0.194574 0.007779 3
-0.206209 -0.046850 -0.178299 0.913385 -0.406196 -0.027068 3
-0.202349 -0.041723 -0.116123 0.876570 -0.480495 0.027370 3
-0.207216 -0.047888 -0.105608 0.860340 -0.502324 0.086522 3
-0.210261 -0.048102 -0.084789 0.931051 -0.338338 0.136641 3
-0.212946 -0.048315 -0.062296 0.986199 -0.157618 0.050674 3
-0.213747 -0.048804 -0.027088 0.996115 -0.088068 0.000100 3
-0.212328 -0.043219 0.020580 0.985315 -0.167255 0.034353 3
-0.215853 -0.049689 0.038698 0.948253 -0.257602 0.185625 3
-0.220392 -0.049780 0.050703 0.918979 -0.055503 0.390382 3
-0.225077 -0.043341 0.060451 0.942363 0.045231 0.331521 3
-0.233065 -0.049872 0.093773 0.966704 0.067481 0.246841 2
-0.236635 -0.043585 0.106834 0.955656 -0.037566 0.292078 2
-0.245112 -0.049933 0.131311 0.959974 -0.021609 0.279253 2
-0.248881 -0.050055 0.147684 0.987130 0.090125 0.132107 2
-0.250872 -0.050238 0.173456 0.988922 0.115354 0.093415 2
-0.257303 -0.050604 0.212463 0.976941 0.000789 0.213508 2
-0.260744 -0.050757 0.230818 0.990916 -0.008337 0.134224 2
-0.263292 -0.051062 0.256426 0.992962 0.073654 0.092744 2
-0.265513 -0.045202 0.281418 0.991265 0.063892 0.115377 2
-0.268732 -0.052283 0.313936 0.982563 0.130226 0.132704 2
-0.271822 -0.052618 0.333628 0.963761 0.156310 0.216175 2
-0.275728 -0.052160 0.342939 0.939240 0.023578 0.342450 2
-0.306948 -0.053625 0.538036 0.974019 0.135134 0.181732 2
-0.311258 -0.047430 0.550735 0.957773 0.072271 0.278294 2
-0.315485 -0.053229 0.565691 0.957292 -0.010313 0.288939 2
-0.318064 -0.041113 0.580154 0.993144 -0.021044 0.114987 2
-0.320902 -0.053808 0.605045 0.995829 -0.053948 0.073588 2
-0.325396 -0.048102 0.652004 0.973865 0.146675 0.173419 2
-0.333018 -0.054663 0.686504 0.918499 0.160874 0.361220 2
-0.337191 -0.054663 0.699003 0.975355 0.009187 0.220452 2
-0.340281 -0.048498 0.717525 0.993135 0.062804 0.098680 2
-0.341837 -0.055182 0.749071 0.979258 0.167938 0.113361 2
-0.344980 -0.055334 0.768509 0.960448 0.147518 0.236176 2
-0.349467 -0.055273 0.779005 0.936762 0.094866 0.336865 2
-0.360254 -0.055548 0.829367 0.974165 0.087442 0.208224 2
-0.364023 -0.055670 0.845190 0.970407 0.123947 0.207239 2
-0.367235 -0.049536 0.862848 0.991289 -0.119488 0.055400 2
-0.370630 -0.056525 0.922249 0.973967 -0.218723 0.059571 2
-0.373392 -0.056769 0.944847 0.966627 -0.178008 0.184242 2
-0.377375 -0.056860 0.959780 0.961687 -0.075173 0.263643 2
-0.381495 -0.056921 0.973911 0.971407 0.056344 0.230638 2
-0.269259 0.339624 1.350864 0.307563 -0.926664 0.216100 2
-0.392718 -0.057074 1.021904 0.981914 0.020187 0.188249 2
-0.395289 -0.051092 1.042810 0.995683 0.048342 0.079234 2
-0.396647 -0.057776 1.075954 0.995902 0.041624 0.080294 2
-0.399294 -0.058111 1.099684 0.978951 0.108009 0.173173 2
-0.403238 -0.058081 1.112564 0.891775 0.258177 0.371593 2
-0.412569 -0.051703 1.130350 0.986150 0.088038 0.140560 2
-0.416399 -0.058539 1.191919 0.993903 -0.075911 0.079963 2
-0.419230 -0.058722 1.213310 0.971774 -0.166731 0.166901 2
-0.422976 -0.058813 1.228489 0.947456 -0.184235 0.261503 2
-0.436983 -0.059485 1.298071 0.969815 -0.052442 0.238135 2
-0.440882 -0.059546 1.313055 0.974548 -0.058513 0.216409 2
-0.444224 -0.059607 1.331030 0.985400 0.004760 0.170188 2
-0.447260 -0.053534 1.349230 0.987927 0.062992 0.141536 2
-0.449801 -0.060034 1.373699 0.992282 0.070070 0.102303 2
-0.452036 -0.060339 1.399320 0.990024 0.092937 0.105903 2
-0.379725 0.316400 1.485306 0.536809 -0.749361 0.387678 2
-0.379030 0.321405 1.493450 0.574581 -0.727869 0.374251 2
-0.461069 -0.054602 1.460693 0.971239 -0.101419 0.215428 2
-0.469149 -0.060950 1.489046 0.966848 0.004720 0.255310 2
-0.472971 -0.061072 1.504959 0.981849 -0.101908 0.159961 2
-0.475840 -0.061346 1.529070 0.982553 -0.153606 0.104855 2
-0.478495 -0.061438 1.555101 0.980114 -0.126294 0.153058 2
-0.482081 -0.061560 1.570154 0.961710 -0.072543 0.264294 2
-0.485697 -0.055487 1.582842 0.966250 -0.033429 0.255429 2
-0.489809 -0.061774 1.597839 0.979538 -0.005104 0.201194 2
-0.505625 -0.062811 1.702869 0.970492 0.036711 0.238321 2
-0.509821 -0.062842 1.717766 0.957527 0.021060 0.287572 2
-0.517115 -0.056525 1.741985 0.973961 -0.006783 0.226615 2
-0.516970 -0.050360 1.740837 0.986961 0.015916 0.160170 2
-0.523524 -0.063177 1.783470 0.987235 0.018837 0.158151 2
-0.526919 -0.057074 1.798902 0.976819 0.111001 0.183041 2
-0.530283 -0.057104 1.815945 0.983766 0.097860 0.150427 2
-0.534723 -0.057623 1.865742 0.989916 -0.117938 0.078467 2
-0.537005 -0.064184 1.892572 0.993594 0.000031 0.113005 2
-0.540270 -0.064368 1.912138 0.972714 0.010721 0.231758 2
-0.544420 -0.064398 1.924784 0.984934 0.020539 0.171709 2
-0.548212 -0.065069 1.981335 0.995641 0.063911 0.067933 2
-0.551188 -0.065283 2.004030 0.986233 0.030063 0.162605 2
-0.554766 -0.059180 2.018879 0.970708 -0.043860 0.236227 2
-0.559008 -0.065375 2.032059 0.969485 -0.081056 0.231361 2
-0.562273 -0.065527 2.049734 0.993417 -0.015942 0.113440 2
-0.566256 -0.059881 2.101889 0.994003 0.073166 0.081265 2
-0.565943 -0.066229 2.105696 0.992335 0.054898 0.110716 2
-0.571825 -0.066595 2.148144 0.989233 -0.049215 0.137825 2
-0.574022 -0.060583 2.171173 0.995572 -0.040660 0.084751 2
-0.575869 -0.060950 2.198811 0.987307 -0.147893 0.057895 2
-0.582621 -0.068121 2.277464 0.985421 -0.020627 0.168880 2
-0.586382 -0.068243 2.293638 0.945444 -0.040904 0.323207 2
-0.590723 -0.061957 2.304626 0.944847 -0.042803 0.324704 2
-0.595141 -0.068121 2.317808 0.970341 -0.072072 0.230748 2
-0.598246 -0.068304 2.337946 0.990962 0.021718 0.132375 1
-0.604098 -0.062567 2.379496 0.986006 0.091103 0.139618 1
-0.607378 -0.062689 2.399029 0.967889 0.099927 0.230663 1
-0.611315 -0.062720 2.412315 0.911372 0.122481 0.392938 1
-0.630465 -0.062598 2.452269 0.883531 0.075466 0.462253 1
-0.635386 -0.068732 2.461405 0.888824 -0.087116 0.449891 1
-0.640108 -0.068579 2.470430 0.909066 -0.096380 0.405352 1
-0.648951 -0.068640 2.493990 0.937165 0.160052 0.310007 1
-0.267206 0.506128 1.692947 0.883539 -0.034151 0.467110 1
0.642896 -0.071051 -0.097675 0.863384 -0.031955 0.503534 1
0.638113 -0.070990 -0.089747 0.849747 -0.029465 0.526366 1
0.628561 -0.077032 -0.074242 0.884157 -0.072252 0.461569 1
0.614797 -0.077063 -0.041119 0.886650 -0.051059 0.459613 1
0.605451 -0.070715 -0.022938 0.893418 -0.075729 0.442797 1
0.590818 -0.076819 0.006357 0.841453 0.055762 0.537446 1
0.562200 -0.070105 0.056675 0.886079 -0.077339 0.457037 1
0.557592 -0.070074 0.067457 0.926311 0.045191 0.374040 1
0.553121 -0.076269 0.079862 0.888459 -0.010021 0.458846 1
0.543211 -0.076117 0.096439 0.858718 -0.229294 0.458287 1
0.543943 -0.069952 0.099535 0.912166 -0.254119 0.321523 1
0.534208 -0.076056 0.118910 0.848953 -0.409926 0.333526 1
0.524717 -0.075995 0.138380 0.900636 -0.008555 0.434491 1
0.515325 -0.075903 0.158420 0.904545 0.225088 0.362124 1
0.546911 -0.083166 0.553583 0.382554 -0.365228 0.848682 2
0.540891 -0.082861 0.555675 0.255466 -0.314700 0.914167 2
0.534880 -0.082617 0.557011 0.126577 -0.281313 0.951231 2
-0.294520 0.523523 1.750339 0.839940 -0.136761 0.525164 1
-0.288958 0.518488 1.740070 0.849679 -0.084832 0.520432 1
-0.197863 -0.036993 -0.443024 0.947146 -0.315701 0.056982 3
-0.195566 -0.036688 -0.468069 0.976234 -0.198450 0.087094 3
-0.198733 -0.037421 -0.409033 0.939986 -0.341203 0.002701 3
-0.197588 -0.038794 -0.323015 0.986311 -0.164612 0.009631 3
-0.199190 -0.039160 -0.293564 0.909482 -0.407481 0.082475 3
-0.284243 0.488214 1.730835 0.867062 0.054852 0.495171 1
-0.204119 -0.039709 -0.245567 0.897752 -0.434438 0.072830 3
-0.205507 -0.040076 -0.214827 0.911656 -0.410323 -0.022752 3
-0.205523 -0.041937 -0.095303 0.933663 -0.313472 0.173231 3
-0.209337 -0.041998 -0.079630 0.947438 -0.263288 0.181773 3
-0.212374 -0.042151 -0.059902 0.981144 -0.180287 0.069667 3
-0.213122 -0.042608 -0.024429 0.992221 -0.124476 0.001910 3
-0.215235 -0.043371 0.041597 0.968241 -0.118007 0.220417 3
-0.215059 -0.037207 0.041279 0.940742 0.022631 0.338368 3
-0.229166 -0.043402 0.075649 0.971019 -0.021171 0.238062 2
-0.232928 -0.043494 0.092413 0.972399 -0.015496 0.232809 2
-0.240626 -0.043707 0.120062 0.949064 -0.144079 0.280213 2
-0.244868 -0.043768 0.132536 0.945515 -0.160703 0.283153 2
-0.248812 -0.043707 0.147398 0.987721 -0.001504 0.156223 2
-0.253809 -0.044287 0.194382 0.986939 0.109633 0.118033 2
-0.257281 -0.044440 0.213041 0.985869 -0.014981 0.166848 2
-0.260447 -0.044501 0.232962 0.974561 -0.192114 0.115422 2
-0.262934 -0.044714 0.257641 0.986518 -0.119094 0.112241 2
-0.268923 -0.046026 0.307180 0.968001 0.205767 0.143644 2
-0.307314 -0.047430 0.534363 0.967822 0.172854 0.182872 2
-0.315142 -0.047156 0.565115 0.974311 0.000845 0.225204 2
-0.322336 -0.047949 0.632843 0.994652 -0.034839 0.097231 2
-0.329157 -0.048315 0.668527 0.948345 0.218362 0.230131 2
-0.333132 -0.048376 0.684145 0.954552 0.161574 0.250449 2
-0.343149 -0.042456 0.737198 0.984045 0.133804 0.117270 2
-0.345362 -0.049017 0.764318 0.969718 0.172106 0.173285 2
-0.349405 -0.049048 0.777891 0.962962 0.010580 0.269431 2
-0.356714 -0.049200 0.810480 0.974934 0.030198 0.220434 2
-0.360659 -0.049261 0.825199 0.940556 0.227930 0.251799 2
-0.364405 -0.049383 0.841104 0.964908 0.189012 0.182282 2
-0.367953 -0.050055 0.897709 0.966640 -0.255510 0.017943 2
-0.369440 -0.050452 0.928173 0.965285 -0.239522 0.104185 2
-0.373125 -0.050543 0.944874 0.958987 0.011622 0.283211 2
-0.377489 -0.050635 0.957313 0.917389 0.240032 0.317461 2
-0.381670 -0.050696 0.971123 0.961072 0.169923 0.217868 2
-0.388849 -0.050787 1.005401 0.976923 0.029279 0.211578 2
-0.392489 -0.050879 1.021278 0.981828 -0.004487 0.189720 2
-0.396937 -0.051550 1.072758 0.988602 0.123756 0.085729 2
-0.399653 -0.051886 1.096693 0.967552 0.179622 0.177706 2
-0.403757 -0.051886 1.109114 0.893123 0.233626 0.384382 2
-0.408495 -0.051703 1.117729 0.890519 0.248798 0.380888 2
-0.414744 -0.052008 1.157278 0.998651 -0.031650 0.041159 2
-0.415873 -0.052374 1.193031 0.990878 -0.122315 0.056567 2
-0.417628 -0.046515 1.219673 0.970013 -0.163946 0.179431 2
-0.426409 -0.052893 1.243246 0.962180 -0.081896 0.259811 2
-0.162813 0.484094 1.484861 0.886689 0.019635 0.461949 1
-0.366701 0.408106 1.741928 0.453501 -0.836591 0.307332 2
-0.360956 0.409082 1.734854 0.529889 -0.807812 0.258181 2
-0.360003 0.413446 1.745354 0.489230 -0.815312 0.309710 2
-0.433047 -0.053259 1.282009 0.983027 0.018680 0.182506 2
-0.436785 -0.053229 1.298614 0.973219 -0.046915 0.225041 2
-0.444063 -0.053412 1.330578 0.979047 -0.005764 0.203551 2
-0.450091 -0.053778 1.370277 0.986482 0.124122 0.106989 2
-0.454912 -0.054327 1.420708 0.995338 0.017816 0.094787 2
-0.457705 -0.054480 1.443029 0.980798 -0.124441 0.150167 2
-0.469027 -0.054724 1.488592 0.967173 -0.050418 0.249068 2
-0.472414 -0.054877 1.508636 0.976407 -0.175998 0.125118 2
-0.474360 -0.048865 1.536451 0.983756 -0.121762 0.131900 2
-0.478159 -0.055151 1.554657 0.974496 0.003022 0.224384 2
-0.481791 -0.055395 1.569334 0.969349 0.008936 0.245525 2
-0.351984 0.373316 1.596985 0.526245 -0.815812 0.239826 2
-0.489672 -0.055548 1.597813 0.977940 -0.066676 0.197959 2
-0.493265 -0.055670 1.618791 0.983331 -0.121441 0.135322 2
-0.495402 -0.049658 1.644396 0.987778 -0.081442 0.132896 2
-0.501764 -0.056341 1.682163 0.971612 0.123268 0.201928 2
-0.505617 -0.056708 1.700117 0.964637 0.127743 0.230557 2
-0.513338 -0.050268 1.727222 0.965356 0.052803 0.255539 2
-0.513460 -0.056586 1.728737 0.958539 0.015890 0.284519 2
-0.523325 -0.050879 1.781765 0.984341 0.051195 0.168677 2
-0.532641 -0.057318 1.839662 0.995771 -0.024534 0.088535 2
-0.537249 -0.057928 1.889107 0.984130 0.107520 0.141166 2
-0.540262 -0.058142 1.910261 0.978500 0.089272 0.185927 2
-0.544184 -0.058172 1.924581 0.977579 -0.030958 0.208282 2
-0.547266 -0.058325 1.944492 0.996461 0.040336 0.073747 2
-0.548884 -0.052466 1.972946 0.996639 0.035555 0.073806 2
-0.551233 -0.059088 2.001457 0.987658 0.074571 0.137735 2
-0.558520 -0.059241 2.033981 0.964178 -0.165156 0.207568 2
-0.561815 -0.059363 2.051479 0.979604 -0.131359 0.152056 2
-0.564379 -0.059546 2.074558 0.995611 0.025623 0.090011 2
-0.369112 0.369653 1.625784 0.581627 -0.778515 0.235847 2
-0.571573 -0.060339 2.148005 0.993082 0.033652 0.112501 2
-0.577494 -0.061316 2.228071 0.976624 -0.202702 0.071541 2
-0.579928 -0.061590 2.252403 0.989937 -0.085192 0.112991 2
-0.582720 -0.061865 2.275124 0.983906 0.082752 0.158371 2
-0.586352 -0.061987 2.292521 0.968389 0.117027 0.220289 2
-0.364382 0.366663 1.601925 0.584720 -0.779776 0.223723 2
-0.594706 -0.061957 2.318842 0.973252 -0.067737 0.219528 1
-0.597971 -0.062079 2.337748 0.983978 -0.007779 0.178120 1
-0.411188 0.347284 1.656404 0.658989 -0.705817 0.259915 2
-0.404780 0.353510 1.656015 0.723201 -0.637447 0.265785 2
-0.625643 -0.050116 2.438597 0.898677 0.126941 0.419840 1
-0.442354 0.359583 1.745849 0.572779 -0.724851 0.382774 2
-0.644465 -0.062414 2.481634 0.906801 -0.054268 0.418052 1
-0.649096 -0.062414 2.492235 0.920936 0.064961 0.384262 1
-0.653696 -0.062384 2.502810 0.916053 0.144000 0.374314 1
-0.657953 -0.068671 2.516926 0.908171 0.204785 0.365087 1
-0.658205 -0.062384 2.514135 0.919577 0.142662 0.366096 1
-0.183321 0.370905 1.409244 0.027486 -0.984756 0.171758 2
-0.366625 0.327783 1.489824 0.528583 -0.753273 0.391381 2
-0.277750 0.349939 1.406744 0.368021 -0.914576 0.167666 2
-0.348406 0.335138 1.478849 0.516491 -0.831034 0.206445 2
-0.336138 0.342035 1.471622 0.595650 -0.775539 0.209143 2
-0.354181 0.334162 1.486433 0.412292 -0.872809 0.261188 2
-0.153795 0.356134 1.293487 -0.122592 -0.985292 0.119042 2
-0.147394 0.355432 1.296173 -0.061748 -0.988846 0.135538 2
-0.145708 0.357874 1.321171 -0.038796 -0.994329 0.099016 2
-0.331736 0.388696 1.614433 0.292337 -0.943893 0.153637 2
0.628904 -0.070868 -0.073696 0.900103 -0.096302 0.424900 1
0.624578 -0.064703 -0.061766 0.922220 -0.067325 0.380759 1
0.619680 -0.070898 -0.050827 0.904003 -0.002053 0.427522 1
0.600721 -0.070654 -0.013031 0.894370 -0.084907 0.439195 1
0.595930 -0.070593 -0.003525 0.880336 -0.024947 0.473695 1
0.586004 -0.070502 0.012192 0.848797 0.097079 0.519730 1
0.581083 -0.070379 0.021053 0.905707 0.046493 0.421347 1
0.576498 -0.070318 0.031710 0.900495 -0.080694 0.427315 1
0.571958 -0.070227 0.040871 0.862783 -0.121646 0.490722 1
