-0.205285 -0.178332 -0.526629 0.960097 0.279510 0.009433 3
-0.207734 -0.171741 -0.505105 0.916541 0.399777 -0.011446 3
-0.206734 -0.171435 -0.459769 0.934054 0.357107 -0.004241 3
-0.207406 -0.171100 -0.424826 0.872257 0.487264 0.041738 3
-0.210053 -0.170734 -0.402148 0.818083 0.563506 0.114895 3
-0.213181 -0.170367 -0.382439 0.749637 0.659710 0.053164 3
-0.214867 -0.170032 -0.353831 0.718661 0.694518 0.034206 3
-0.213906 -0.163104 -0.271989 0.904195 0.426746 -0.017884 3
-0.208130 -0.168719 -0.155450 0.900768 0.433726 -0.022319 3
-0.207375 -0.168414 -0.111603 0.917060 0.398623 -0.010083 3
-0.208153 -0.168048 -0.077332 0.937103 0.345218 0.051589 3
-0.211014 -0.167712 -0.056014 0.934826 0.306615 0.179133 3
-0.219819 -0.160754 -0.034835 0.930377 0.288108 0.226697 3
-0.222527 -0.166644 -0.010026 0.937921 0.295274 0.181980 3
-0.226327 -0.166278 0.005584 0.942826 0.194715 0.270491 3
-0.230622 -0.165851 0.018316 0.957522 0.101413 0.269940 2
-0.234467 -0.165515 0.034173 0.973644 0.077054 0.214661 2
-0.238015 -0.165149 0.052455 0.980349 0.081288 0.179746 2
-0.241326 -0.164935 0.072448 0.984195 0.127602 0.122789 2
-0.243691 -0.164844 0.098867 0.971795 0.218637 0.088390 2
-0.245865 -0.164325 0.122331 0.917540 0.388579 0.084417 2
-0.248452 -0.163867 0.143216 0.879590 0.468718 0.081392 2
-0.250435 -0.163440 0.169452 0.952734 0.297852 0.059854 2
-0.251839 -0.163074 0.198980 0.992136 0.118228 0.041089 2
-0.253357 -0.162738 0.228519 0.981857 0.181502 0.054903 2
-0.255471 -0.162372 0.254442 0.938409 0.332115 0.095328 2
-0.260270 -0.161670 0.302839 0.966022 0.257110 0.026379 2
-0.258492 -0.161334 0.353126 0.980379 0.193663 -0.036773 2
-0.257134 -0.160998 0.400611 0.983075 0.182166 0.019473 2
-0.260079 -0.160663 0.421504 0.977599 0.122475 0.171170 2
-0.270768 -0.159656 0.476321 0.977768 0.146739 0.149790 2
-0.276917 -0.159015 0.517875 0.979626 0.115592 0.164230 2
-0.280549 -0.158588 0.533046 0.930870 0.248183 0.268117 2
-0.289597 -0.151599 0.549667 0.887208 0.293980 0.355581 2
-0.294053 -0.157519 0.565328 0.824913 0.369758 0.427547 2
-0.298775 -0.157092 0.573776 0.863131 0.281883 0.418983 2
-0.303277 -0.156634 0.583452 0.904287 0.258238 0.339968 2
-0.307793 -0.150134 0.592788 0.945218 0.282620 0.163371 2
-0.309922 -0.156116 0.622905 0.969878 0.202222 0.135802 2
-0.313393 -0.155658 0.640174 0.952647 0.109136 0.283819 2
-0.318001 -0.149127 0.647653 0.763817 0.077494 0.640764 2
-0.323723 -0.154864 0.651378 0.701225 0.009457 0.712877 2
-0.328705 -0.154437 0.658696 0.951579 0.122083 0.282122 2
-0.331795 -0.154101 0.678859 0.987933 0.140480 0.065226 2
-0.334435 -0.153461 0.741592 0.996833 0.073127 0.031263 2
-0.335473 -0.153125 0.774307 0.986169 0.144883 0.080497 2
-0.338143 -0.152759 0.796794 0.946379 0.289526 0.143324 2
-0.341691 -0.152362 0.813823 0.958732 0.238206 0.155211 2
-0.344285 -0.152026 0.836517 0.990979 0.094192 0.095330 2
-0.346398 -0.151691 0.862382 0.993157 0.060354 0.099978 2
-0.349000 -0.151294 0.884256 0.991342 0.020745 0.129656 2
-0.351899 -0.150867 0.904180 0.977154 0.068220 0.201285 2
-0.355691 -0.150470 0.919471 0.937638 0.129226 0.322700 2
-0.360375 -0.150043 0.929609 0.881419 0.155951 0.445847 2
-0.365494 -0.143573 0.935947 0.854398 0.213955 0.473527 2
-0.370202 -0.149432 0.948774 0.893994 0.199580 0.401177 2
-0.379609 -0.148761 0.971177 0.953347 -0.010347 0.301701 2
-0.383050 -0.148456 0.988265 0.945905 -0.290222 0.145037 2
-0.385705 -0.148028 1.009683 0.895364 -0.420587 0.146387 2
-0.389123 -0.147723 1.027515 0.898038 -0.360776 0.251732 2
-0.393609 -0.147296 1.038778 0.966898 -0.060898 0.247788 2
-0.391129 -0.146319 1.171596 0.907119 0.025449 0.420105 2
-0.396439 -0.145984 1.177747 0.842168 -0.028900 0.538440 2
-0.400559 -0.139361 1.186351 0.927279 -0.081324 0.365431 2
-0.412537 -0.138263 1.229985 0.969594 0.111294 0.217947 2
-0.416092 -0.144122 1.250749 0.977734 0.074220 0.196282 2
-0.419014 -0.143786 1.269912 0.995032 -0.075789 0.064557 2
-0.422066 -0.143115 1.332160 0.996866 -0.012744 0.078078 2
-0.425629 -0.142749 1.348752 0.962673 0.055851 0.264842 2
-0.430108 -0.142352 1.360606 0.908745 0.008804 0.417258 2
-0.434334 -0.129596 1.368163 0.921671 -0.006906 0.387911 2
-0.439522 -0.141650 1.379503 0.971996 -0.062238 0.226605 2
-0.442757 -0.141254 1.399247 0.987312 -0.117047 0.107308 2
-0.444634 -0.140948 1.426070 0.986596 -0.090455 0.135817 2
-0.451287 -0.140216 1.462631 0.993869 -0.031012 0.106124 2
-0.451371 -0.139545 1.540403 0.999302 0.012399 0.035227 2
-0.454773 -0.139239 1.558868 0.966722 0.119134 0.226395 2
-0.459145 -0.138812 1.570812 0.942327 0.035287 0.332828 2
-0.463280 -0.138446 1.584039 0.980360 -0.068170 0.185061 2
-0.465844 -0.138080 1.607915 0.990471 -0.106087 0.087825 2
-0.467797 -0.137683 1.636342 0.991922 -0.092899 0.086372 2
-0.470612 -0.137439 1.658647 0.981045 0.075309 0.178550 2
-0.474259 -0.137073 1.674535 0.946773 0.121072 0.298267 2
-0.478600 -0.136645 1.684133 0.890058 0.049706 0.453129 2
-0.497086 -0.135181 1.726272 0.964276 -0.009554 0.264726 2
-0.500863 -0.134845 1.742410 0.975134 0.057276 0.214085 2
-0.504464 -0.134479 1.759223 0.975592 0.106338 0.192124 2
-0.507821 -0.134112 1.777242 0.985202 0.067996 0.157335 2
-0.510956 -0.133716 1.796653 0.984229 -0.084665 0.155320 2
-0.516633 -0.133044 1.839401 0.989007 0.022281 0.146183 2
-0.519799 -0.126514 1.856303 0.987317 0.082349 0.135737 2
-0.522751 -0.132342 1.879035 0.995402 -0.065435 0.069954 2
-0.523964 -0.131976 1.910571 0.988228 -0.146653 0.043561 2
-0.525712 -0.131640 1.938945 0.984026 -0.169297 0.055054 2
-0.526627 -0.131305 1.972297 0.996858 -0.079204 -0.001064 2
-0.525292 -0.131000 2.019754 0.998674 0.050813 -0.008239 2
-0.526772 -0.130633 2.049709 0.992112 0.034570 0.120494 2
-0.530846 -0.130267 2.063812 0.925591 -0.218946 0.308778 2
-0.535187 -0.129718 2.077890 0.848433 -0.420904 0.320938 2
-0.539551 -0.129352 2.089313 0.809501 -0.443790 0.384394 2
-0.544159 -0.129199 2.097577 0.841640 -0.272326 0.466349 2
-0.548600 -0.128772 2.108005 0.962177 -0.092623 0.256197 1
-0.552056 -0.128467 2.128661 0.990414 -0.049488 0.128961 1
-0.554719 -0.128100 2.155418 0.986145 -0.022319 0.164378 1
-0.567551 -0.120654 2.190707 0.848675 -0.098105 0.519736 1
-0.583275 -0.125873 2.210010 0.701110 -0.130373 0.701034 1
-0.597367 -0.118426 2.235914 0.923009 -0.053733 0.381008 1
-0.607888 -0.123981 2.256534 0.851896 0.110008 0.512028 1
-0.612114 -0.111224 2.260402 0.841107 0.065165 0.536929 1
-0.617127 -0.110919 2.268586 0.878108 0.039701 0.476812 1
-0.632119 -0.122150 2.302074 0.898101 -0.012022 0.439625 1
-0.636887 -0.121753 2.310704 0.859126 0.021121 0.511327 1
-0.203332 -0.166919 -0.636651 0.785066 0.619407 -0.002675 3
-0.203057 -0.167224 -0.674119 0.781937 0.623213 0.013386 3
-0.202942 -0.166583 -0.595090 0.852735 0.522301 0.006622 3
-0.204857 -0.166247 -0.567855 0.874970 0.474637 0.095639 3
-0.208016 -0.165881 -0.548377 0.926289 0.363798 0.098187 3
-0.209588 -0.165546 -0.519076 0.965482 0.260460 -0.002352 3
-0.208375 -0.165179 -0.472335 0.978716 0.204669 -0.015042 3
-0.208748 -0.164844 -0.435561 0.968082 0.243071 0.061109 3
-0.211754 -0.164508 -0.415072 0.922433 0.352506 0.157659 3
-0.218667 -0.163806 -0.379851 0.899531 0.413233 0.141711 3
-0.212113 -0.162494 -0.182572 0.923416 0.383159 -0.022169 3
-0.213090 -0.155292 -0.073662 0.916131 0.399096 0.037770 3
-0.211716 -0.161487 -0.062709 0.934726 0.326454 0.140412 3
-0.215485 -0.161120 -0.047055 0.913311 0.302381 0.272814 3
-0.224213 -0.154162 -0.025464 0.936061 0.304416 0.176409 3
-0.226639 -0.160052 0.000936 0.955805 0.230626 0.182341 3
-0.230492 -0.159656 0.016275 0.966302 0.080814 0.244394 3
-0.234253 -0.159289 0.032455 0.978724 -0.001201 0.205179 2
-0.241478 -0.158649 0.069154 0.978151 0.147292 0.146715 2
-0.247025 -0.158160 0.113326 0.954055 0.274298 0.120582 2
-0.249985 -0.157641 0.131484 0.948079 0.305726 0.087620 2
-0.251687 -0.157336 0.160547 0.990893 0.130927 0.031465 2
-0.253953 -0.156482 0.222396 0.984686 0.155993 0.077849 2
-0.256753 -0.156146 0.244127 0.943224 0.305561 0.130235 2
-0.259598 -0.155780 0.265579 0.922909 0.374488 0.089435 2
-0.260689 -0.155109 0.336999 0.988163 0.150918 -0.027527 2
-0.258507 -0.154803 0.389684 0.978664 0.205222 -0.010047 2
-0.260087 -0.154437 0.419021 0.975644 0.161734 0.148192 2
-0.267449 -0.153735 0.452136 0.962019 0.195237 0.190791 2
-0.273835 -0.152972 0.495027 0.987907 0.056140 0.144525 2
-0.276757 -0.152606 0.514892 0.972052 0.112615 0.205990 2
-0.280655 -0.152270 0.527686 0.906590 0.268173 0.325850 2
-0.294167 -0.151233 0.560514 0.894569 0.196125 0.401598 2
-0.303414 -0.150470 0.579627 0.897787 0.191711 0.396517 2
-0.313553 -0.149524 0.637998 0.943803 0.287050 0.163822 2
-0.323403 -0.148669 0.651214 0.665586 0.092972 0.740508 2
-0.328614 -0.148212 0.656717 0.925998 0.089621 0.366737 2
-0.332322 -0.147876 0.673393 0.992309 0.099584 0.073531 2
-0.334244 -0.147235 0.740377 0.997757 0.057775 0.033795 2
-0.338723 -0.146503 0.790811 0.974953 0.157024 0.157514 2
-0.341965 -0.146167 0.809718 0.991098 0.045813 0.125002 2
-0.344376 -0.145770 0.833801 0.995827 0.028242 0.086780 2
-0.344262 -0.139606 0.832212 0.991503 0.065854 0.112180 2
-0.349160 -0.145038 0.881166 0.985454 0.123809 0.116408 2
-0.352036 -0.144733 0.902578 0.981859 0.090795 0.166461 2
-0.356072 -0.138263 0.916807 0.939550 0.139317 0.312788 2
-0.374909 -0.142901 0.956498 0.929883 0.189653 0.315199 2
-0.379349 -0.142596 0.970527 0.987279 -0.062691 0.146113 2
-0.384278 -0.141864 1.016208 0.969720 -0.185494 0.158859 2
-0.388260 -0.141528 1.030597 0.915794 -0.138830 0.376891 2
-0.393204 -0.141101 1.038953 0.904781 -0.155656 0.396412 2
-0.390992 -0.140124 1.170070 0.965276 0.150444 0.213563 2
-0.388871 -0.146686 1.146531 0.990257 0.128620 0.053376 2
-0.390023 -0.140460 1.136953 0.974952 0.220858 0.026286 2
-0.396172 -0.139758 1.176978 0.845262 0.063238 0.530597 2
-0.404839 -0.139026 1.200536 0.954991 -0.140008 0.261514 2
-0.408684 -0.138690 1.216382 0.963621 -0.082375 0.254262 2
-0.416169 -0.137866 1.246076 0.987138 0.056783 0.149447 2
-0.418633 -0.131366 1.270259 0.996717 -0.043969 0.067985 2
-0.422204 -0.136890 1.329784 0.984788 0.099260 0.142620 2
-0.425744 -0.136523 1.346568 0.962023 0.135671 0.236867 2
-0.429932 -0.136188 1.358951 0.940689 0.114915 0.319215 2
-0.439011 -0.135394 1.379773 0.968856 -0.114322 0.219656 2
-0.444054 -0.134723 1.427272 0.986667 -0.101379 0.127318 2
-0.447571 -0.134387 1.444276 0.978333 -0.074512 0.193165 2
-0.450867 -0.134021 1.462903 0.984670 -0.160967 0.067192 2
-0.451493 -0.133655 1.498101 0.994966 -0.099923 0.007614 2
-0.451584 -0.133319 1.536723 0.998342 -0.013266 0.056004 2
-0.459145 -0.132617 1.568467 0.946977 0.158264 0.279619 2
-0.463059 -0.132251 1.582765 0.991261 0.049472 0.122286 2
-0.467675 -0.131579 1.634845 0.989291 0.099473 0.106814 2
-0.470871 -0.131305 1.654182 0.953935 0.238807 0.181603 2
-0.474549 -0.130939 1.670516 0.941646 0.232238 0.243657 2
-0.478676 -0.130542 1.682546 0.908789 0.177768 0.377493 2
-0.483239 -0.130084 1.691327 0.869897 0.015947 0.492975 2
-0.487984 -0.129687 1.700353 0.907477 -0.044841 0.417702 2
-0.492577 -0.129352 1.711694 0.940588 -0.037815 0.337439 2
-0.500756 -0.128650 1.740556 0.964462 0.003365 0.264200 2
-0.504502 -0.128253 1.756137 0.975474 0.087531 0.201964 2
-0.516656 -0.126849 1.836457 0.983116 0.114052 0.143090 2
-0.522248 -0.126117 1.879775 0.993156 -0.106160 0.048691 2
-0.522904 -0.125812 1.914829 0.974606 -0.216949 0.055468 2
-0.526619 -0.125079 1.969972 0.997825 -0.063793 0.016625 2
-0.526002 -0.124744 2.012962 0.999409 -0.034377 0.000085 2
-0.526612 -0.124438 2.048219 0.987741 -0.138981 0.071076 2
-0.529816 -0.123950 2.068807 0.904865 -0.375109 0.201277 2
-0.533753 -0.123401 2.084785 0.807346 -0.510169 0.296513 2
-0.538415 -0.123157 2.093723 0.728587 -0.446950 0.519034 2
-0.543572 -0.122943 2.099403 0.757515 -0.190062 0.624538 2
-0.548325 -0.122577 2.107793 0.968622 -0.070090 0.238453 1
-0.554375 -0.121875 2.155610 0.990082 -0.020561 0.138977 1
-0.557892 -0.109210 2.172006 0.959970 -0.012257 0.279833 1
-0.562508 -0.121051 2.181596 0.901338 -0.061449 0.428735 1
-0.572648 -0.120380 2.198333 0.789969 -0.037942 0.611971 1
-0.582505 -0.113483 2.210672 0.786699 -0.052906 0.615065 1
-0.582970 -0.119617 2.210666 0.756915 -0.124753 0.641496 1
-0.587899 -0.119220 2.217347 0.830456 -0.153812 0.535430 1
-0.592614 -0.118915 2.225938 0.872075 -0.141706 0.468406 1
-0.596963 -0.112262 2.235040 0.869033 0.021715 0.494277 1
-0.622346 -0.116809 2.279887 0.911923 0.030002 0.409264 1
-0.627129 -0.116443 2.291278 0.916445 0.016539 0.399818 1
-0.631821 -0.116046 2.301070 0.880764 0.058072 0.469980 1
-0.208039 -0.160663 -0.668276 0.893572 0.448898 -0.004423 3
-0.206093 -0.160998 -0.695298 0.877725 0.472116 0.081888 3
-0.206780 -0.160327 -0.621331 0.912370 0.409015 -0.016961 3
-0.206734 -0.159991 -0.581908 0.922157 0.385254 0.034727 3
-0.209176 -0.159656 -0.557999 0.932939 0.344382 0.105007 3
-0.211525 -0.159259 -0.533459 0.953320 0.301800 0.009875 3
-0.210030 -0.158954 -0.485026 0.973619 0.226061 -0.031007 3
-0.209183 -0.158649 -0.440638 0.991284 0.128388 0.029550 3
-0.211960 -0.158282 -0.418828 0.987220 0.047416 0.152146 3
-0.215233 -0.157916 -0.400082 0.975354 -0.111586 0.190352 3
-0.218873 -0.157580 -0.383523 0.957061 -0.168843 0.235640 3
-0.215424 -0.156573 -0.244734 0.965248 0.260117 -0.025196 3
-0.216385 -0.156940 -0.289803 0.948596 0.315668 -0.022798 3
-0.214234 -0.156268 -0.198130 0.964692 0.262973 -0.014660 3
-0.213891 -0.155963 -0.156861 0.922577 0.385448 -0.016763 3
-0.215882 -0.149036 -0.093350 0.901131 0.433520 -0.004800 3
-0.216019 -0.154925 -0.052735 0.893763 0.405041 0.192692 3
-0.220368 -0.154559 -0.040646 0.894365 0.358609 0.267415 3
-0.227181 -0.153827 -0.004792 0.982052 0.128769 0.137813 3
-0.230362 -0.153491 0.014516 0.981021 0.029263 0.191680 3
-0.241669 -0.152576 0.065839 0.972995 0.117366 0.198761 2
-0.237587 -0.152759 0.049398 0.968971 -0.033001 0.244962 2
-0.245186 -0.152576 0.086461 0.962533 0.234869 0.135522 2
-0.250779 -0.151446 0.125709 0.985509 0.138642 0.097728 2
-0.251969 -0.151111 0.156890 0.999515 0.015281 0.027145 2
-0.252457 -0.150622 0.191024 0.998012 0.049476 0.039052 2
-0.254296 -0.150317 0.218046 0.992272 0.061962 0.107506 2
-0.257409 -0.149951 0.237645 0.973682 0.139916 0.179906 2
-0.260811 -0.149585 0.255616 0.962732 0.257917 0.081399 2
-0.262223 -0.149219 0.285968 0.981956 0.188771 0.011340 2
-0.260079 -0.148547 0.377569 0.987729 0.154946 -0.019601 2
-0.260521 -0.148242 0.413991 0.975028 0.209234 0.074441 2
-0.264031 -0.147876 0.431234 0.951774 0.222238 0.211509 2
-0.271088 -0.147174 0.465869 0.978820 0.160279 0.127363 2
-0.273644 -0.146777 0.490991 0.980503 0.157499 0.117506 2
-0.276680 -0.146442 0.511112 0.961962 0.176342 0.208645 2
-0.280816 -0.139850 0.518926 0.925451 0.228703 0.302052 2
-0.289521 -0.145343 0.546634 0.943132 0.063936 0.326212 2
-0.293915 -0.144977 0.558626 0.917221 0.000144 0.398379 2
-0.298462 -0.144610 0.568614 0.891313 0.007808 0.453321 2
-0.303284 -0.144214 0.577033 0.865911 0.092774 0.491520 2
-0.308136 -0.143878 0.586747 0.920253 0.253689 0.297953 2
-0.312035 -0.143603 0.604474 0.935121 0.330534 0.127654 2
-0.314469 -0.143329 0.630016 0.921005 0.365558 0.134600 2
-0.318192 -0.142901 0.645042 0.839265 0.393611 0.375107 2
-0.323342 -0.142444 0.649833 0.655350 0.309486 0.689010 2
-0.328583 -0.141986 0.655206 0.898835 0.149789 0.411897 2
-0.332467 -0.141681 0.670430 0.990090 0.075082 0.118678 2
-0.333909 -0.141315 0.700996 0.991668 0.124188 0.034243 2
-0.334763 -0.141009 0.734800 0.983134 0.179803 0.033457 2
-0.336205 -0.140674 0.765033 0.990659 0.119499 0.065687 2
-0.338784 -0.140277 0.788137 0.991775 -0.000517 0.127994 2
-0.341668 -0.139941 0.809316 0.985634 -0.103556 0.133422 2
-0.347359 -0.133044 0.849468 0.973899 0.180622 0.137461 2
-0.349618 -0.138843 0.876523 0.971600 0.208363 0.112151 2
-0.352295 -0.138537 0.900045 0.975060 0.159908 0.153907 2
-0.360726 -0.137866 0.926402 0.854311 0.196560 0.481162 2
-0.365677 -0.137408 0.933448 0.796086 0.313368 0.517733 2
-0.370514 -0.136981 0.941324 0.874752 0.268845 0.403152 2
-0.379273 -0.136340 0.968204 0.982077 0.132557 0.133989 2
-0.384057 -0.135638 1.015115 0.984420 0.111886 0.135643 2
-0.388016 -0.135242 1.029636 0.946710 0.094845 0.307805 2
-0.392708 -0.134875 1.039621 0.943752 -0.114305 0.310269 2
-0.396668 -0.134570 1.054115 0.931828 -0.253272 0.259903 2
-0.395974 -0.133533 1.175815 0.930649 0.082117 0.356581 2
-0.391236 -0.133868 1.166126 0.833647 0.386797 0.394233 2
-0.400200 -0.133197 1.186591 0.957353 -0.076076 0.278725 2
-0.412438 -0.132098 1.227306 0.958754 0.037380 0.281768 2
-0.408295 -0.132464 1.216527 0.946298 -0.043808 0.320315 2
-0.416192 -0.131732 1.243053 0.988216 -0.008064 0.152856 2
-0.420250 -0.131000 1.300542 0.997671 0.006503 0.067895 2
-0.422532 -0.130755 1.326089 0.989004 0.048459 0.139727 2
-0.425881 -0.124103 1.339860 0.967193 0.105674 0.231019 2
-0.438401 -0.129199 1.381036 0.968385 -0.178515 0.174249 2
-0.441308 -0.128863 1.402793 0.983165 -0.148824 0.106007 2
-0.443093 -0.122272 1.428479 0.978453 -0.147246 0.144737 2
-0.447083 -0.128192 1.444915 0.971973 -0.182348 0.148382 2
-0.449685 -0.127795 1.467853 0.962848 -0.264143 0.056155 2
-0.450234 -0.127490 1.503602 0.979102 -0.201877 0.024583 2
-0.451600 -0.127124 1.534263 0.992406 0.003846 0.122946 2
-0.455178 -0.126758 1.551551 0.956753 0.152934 0.247456 2
-0.463181 -0.125995 1.578977 0.972322 0.165169 0.165256 2
-0.465828 -0.125690 1.601936 0.978697 0.182238 0.094555 2
-0.468285 -0.125323 1.627729 0.950098 0.289709 0.115684 2
-0.471550 -0.125140 1.647584 0.928038 0.338427 0.155607 2
-0.475121 -0.124805 1.665084 0.933273 0.294936 0.204975 2
-0.478951 -0.124347 1.679467 0.921789 0.241525 0.303266 2
-0.483346 -0.123889 1.689899 0.906004 0.181367 0.382443 2
-0.487816 -0.123492 1.699676 0.906730 0.079598 0.414130 2
-0.487816 -0.117297 1.697822 0.938531 0.080718 0.335626 2
-0.504418 -0.122058 1.753841 0.974277 0.048272 0.220125 2
-0.507889 -0.121692 1.770351 0.982417 0.077762 0.169734 2
-0.510918 -0.121326 1.790805 0.983822 0.109087 0.142104 2
-0.514107 -0.120959 1.810298 0.946998 0.270914 0.172629 2
-0.517396 -0.120624 1.829198 0.947624 0.289121 0.135711 2
-0.520142 -0.120288 1.851703 0.987922 0.133187 0.079195 2
-0.521317 -0.119922 1.883144 0.989615 -0.143312 0.011114 2
-0.526032 -0.118915 1.971244 0.974450 -0.223370 0.023529 2
-0.525406 -0.118548 2.014278 0.982827 -0.184383 -0.007366 2
-0.525353 -0.118060 2.055463 0.957657 -0.285764 0.035099 2
-0.527794 -0.117572 2.079807 0.850671 -0.499213 0.164761 2
-0.532075 -0.117297 2.091274 0.710525 -0.554567 0.433140 2
-0.537453 -0.116992 2.096566 0.554129 -0.338712 0.760404 2
-0.542496 -0.110553 2.101030 0.646582 -0.187707 0.739390 2
-0.547959 -0.116382 2.107587 0.935347 -0.121253 0.332300 1
-0.550980 -0.115741 2.128049 0.986043 -0.081504 0.145177 1
-0.562066 -0.115008 2.181148 0.898378 -0.032008 0.438054 1
-0.566552 -0.114520 2.190337 0.853546 0.041600 0.519353 1
-0.572274 -0.114215 2.197955 0.805297 0.002877 0.592865 1
-0.577073 -0.107562 2.203981 0.797471 0.019191 0.603052 1
-0.587449 -0.113116 2.218101 0.843722 -0.051026 0.534349 1
-0.607064 -0.111560 2.252315 0.856483 0.091913 0.507926 1
-0.621743 -0.098132 2.276410 0.899577 0.077341 0.429860 1
-0.626801 -0.110339 2.290090 0.903288 0.076301 0.422195 1
-0.631524 -0.109881 2.299613 0.861349 0.090818 0.499830 1
-0.639962 -0.106677 2.312860 0.869012 0.068425 0.490037 1
-0.210213 -0.154407 -0.684222 0.962310 0.270884 0.024108 3
-0.206818 -0.154803 -0.702206 0.973455 0.156009 0.167473 3
-0.208718 -0.153766 -0.596673 0.958675 0.284295 -0.010899 3
-0.209855 -0.153430 -0.564585 0.962561 0.255080 0.091707 3
-0.213128 -0.153094 -0.545811 0.968976 0.242933 0.045493 3
-0.212761 -0.152728 -0.504456 0.973750 0.224596 -0.036990 3
-0.209878 -0.152423 -0.447356 0.985997 0.166663 0.005756 3
-0.211762 -0.152057 -0.419968 0.995077 0.020661 0.096925 3
-0.214432 -0.151721 -0.397437 0.975737 -0.158667 0.150872 3
-0.217774 -0.151355 -0.379037 0.930919 -0.280235 0.234218 3
-0.221856 -0.151019 -0.365294 0.908457 -0.281321 0.309133 3
-0.215264 -0.150043 -0.206954 0.983129 0.182708 0.008627 3
-0.216172 -0.149707 -0.173512 0.956275 0.291474 0.024088 3
-0.216713 -0.149341 -0.137725 0.913630 0.406499 -0.006317 3
-0.217385 -0.148669 -0.063609 0.865711 0.491515 0.094640 3
-0.221100 -0.148364 -0.047585 0.872008 0.441257 0.211881 3
-0.224862 -0.147967 -0.031852 0.952698 0.264550 0.149601 3
-0.227624 -0.147632 -0.009875 0.985324 0.133531 0.106331 3
-0.233429 -0.146930 0.033237 0.981164 -0.010470 0.192890 2
-0.237366 -0.146594 0.049201 0.962579 0.054673 0.265430 2
-0.241829 -0.146380 0.062665 0.955952 0.133680 0.261314 2
-0.245698 -0.146075 0.079925 0.971372 0.179964 0.155077 2
-0.245888 -0.139575 0.074649 0.981942 0.113816 0.151112 2
-0.250664 -0.145160 0.123945 0.997946 -0.011298 0.063056 2
-0.251732 -0.144763 0.155111 0.999456 -0.011634 0.030850 2
-0.252617 -0.144397 0.187509 0.998943 0.036188 0.028355 2
-0.253891 -0.137866 0.215638 0.991298 0.101809 0.083447 2
-0.257355 -0.143695 0.235576 0.973938 0.028187 0.225056 2
-0.261475 -0.143329 0.249141 0.970330 0.172465 0.169456 2
-0.263543 -0.142993 0.275352 0.986976 0.160845 0.002780 2
-0.263451 -0.136462 0.312669 0.994964 0.096735 -0.026236 2
-0.261338 -0.142322 0.367393 0.990378 0.137988 -0.010548 2
-0.261452 -0.141986 0.405792 0.981443 0.182884 0.057639 2
-0.264428 -0.141681 0.426406 0.956886 0.227983 0.179980 2
-0.268258 -0.141284 0.441400 0.948849 0.240297 0.204801 2
-0.271561 -0.140887 0.458801 0.961782 0.238001 0.135391 2
-0.274231 -0.140552 0.481981 0.947066 0.301481 0.110340 2
-0.277062 -0.140216 0.504180 0.935881 0.321937 0.143120 2
-0.285019 -0.139514 0.531431 0.953929 0.090522 0.286050 2
-0.289170 -0.139178 0.545596 0.956599 0.036449 0.289120 2
-0.293351 -0.138782 0.558700 0.932297 -0.008051 0.361604 2
-0.297951 -0.138415 0.568679 0.860749 0.004719 0.509008 2
-0.308014 -0.137652 0.583806 0.881322 0.066206 0.467855 2
-0.312638 -0.137286 0.595981 0.953531 0.213707 0.212385 2
-0.315857 -0.137073 0.617959 0.938627 0.318936 0.131377 2
-0.318978 -0.136767 0.637754 0.874960 0.419260 0.242210 2
-0.323693 -0.136340 0.645944 0.743394 0.423762 0.517485 2
-0.328698 -0.135821 0.652948 0.914700 0.178294 0.362678 2
-0.332474 -0.135455 0.668453 0.988802 0.027413 0.146691 2
-0.334443 -0.135150 0.695279 0.994315 0.079572 0.070752 2
-0.337143 -0.134448 0.756851 0.989330 0.143332 0.026107 2
-0.338295 -0.134082 0.788938 0.991770 -0.102131 0.077208 2
-0.340760 -0.133746 0.812661 0.966357 -0.218601 0.135528 2
-0.344048 -0.133380 0.831058 0.979859 -0.053730 0.192325 2
-0.352776 -0.132342 0.894386 0.965523 0.227929 0.125752 2
-0.356308 -0.132037 0.912971 0.929477 0.266720 0.254820 2
-0.360932 -0.131671 0.923250 0.836385 0.311666 0.450914 2
-0.370797 -0.130786 0.937478 0.838682 0.289371 0.461385 2
-0.375420 -0.130420 0.948335 0.915941 0.243260 0.319181 2
-0.379563 -0.130206 0.963970 0.949587 0.273181 0.153808 2
-0.384804 -0.129413 1.008096 0.941264 0.313298 0.125960 2
-0.388352 -0.129046 1.025163 0.940849 0.248715 0.230095 2
-0.392418 -0.128680 1.039052 0.977496 0.050953 0.204707 2
-0.395432 -0.128345 1.059371 0.998380 0.033285 0.046137 2
-0.391877 -0.127704 1.159755 0.957420 0.279365 0.072811 2
-0.403832 -0.126636 1.202628 0.963682 -0.037742 0.264373 2
-0.407967 -0.126239 1.215966 0.942070 0.011218 0.335229 2
-0.412201 -0.125903 1.226547 0.962565 -0.049120 0.266564 2
-0.415803 -0.125537 1.244149 0.980755 -0.164337 0.105421 2
-0.419983 -0.124805 1.300508 0.988497 -0.128859 0.079175 2
-0.429810 -0.123736 1.354459 0.955621 0.057325 0.288967 2
-0.433938 -0.123370 1.368743 0.959886 -0.141395 0.242129 2
-0.437508 -0.123004 1.384952 0.933163 -0.326204 0.150992 2
-0.440339 -0.122638 1.406575 0.949971 -0.281014 0.136333 2
-0.446213 -0.121966 1.448119 0.962705 -0.248045 0.108039 2
-0.447930 -0.121600 1.476537 0.961264 -0.272732 0.039866 2
-0.448914 -0.121265 1.509704 0.979836 -0.190462 0.060373 2
-0.451508 -0.120868 1.532472 0.983388 0.021209 0.180270 2
-0.455277 -0.120563 1.548312 0.960565 0.098258 0.260115 2
-0.459404 -0.120166 1.561307 0.947561 0.149584 0.282406 2
-0.463341 -0.119800 1.574897 0.965097 0.142337 0.219837 2
-0.466538 -0.119342 1.593911 0.961797 0.241159 0.129575 2
-0.469391 -0.119098 1.616666 0.918330 0.373006 0.132430 2
-0.475937 -0.118671 1.658519 0.930798 0.330485 0.156190 2
-0.479462 -0.118182 1.675121 0.936442 0.268253 0.226089 2
-0.483758 -0.111529 1.683589 0.936208 0.154840 0.315498 2
-0.492058 -0.116931 1.710281 0.960151 -0.018334 0.278879 2
-0.504258 -0.115832 1.752372 0.970097 0.003475 0.242693 2
-0.507805 -0.115497 1.768546 0.981178 -0.009992 0.192846 2
-0.511033 -0.115100 1.787765 0.981005 0.086635 0.173560 2
-0.514672 -0.114734 1.804401 0.928659 0.281921 0.241068 2
-0.518517 -0.114429 1.819867 0.934058 0.328972 0.138975 2
-0.520974 -0.114032 1.843860 0.988018 0.150056 0.036112 2
-0.520188 -0.113696 1.887834 0.996661 -0.079593 -0.018233 2
-0.520127 -0.113360 1.927345 0.965640 -0.256867 0.039467 2
-0.522469 -0.113055 1.951831 0.937349 -0.338289 0.083287 2
-0.522980 -0.111987 2.066419 0.969927 -0.242980 0.014206 2
-0.525834 -0.111590 2.088008 0.910362 -0.339513 0.236583 2
-0.530877 -0.111194 2.095517 0.593313 -0.295790 0.748658 2
-0.547135 -0.109820 2.108966 0.948971 -0.194194 0.248482 1
-0.554940 -0.109119 2.156408 0.982043 -0.052651 0.181163 1
-0.561806 -0.108905 2.180394 0.879263 0.048331 0.473879 1
-0.571969 -0.107898 2.196830 0.828429 0.078124 0.554619 1
-0.587105 -0.106921 2.217927 0.864050 0.011954 0.503263 1
-0.606690 -0.105334 2.251140 0.854236 0.014633 0.519679 1
-0.631585 -0.103625 2.298429 0.887777 0.117627 0.444990 1
-0.637635 -0.095325 2.307147 0.885424 0.077563 0.458266 1
-0.210099 -0.148212 -0.685921 0.993917 -0.018911 0.108493 3
-0.207047 -0.148578 -0.706063 0.988656 -0.008619 0.149953 3
-0.211808 -0.147876 -0.657365 0.983440 0.181225 -0.001640 3
-0.212357 -0.141315 -0.624093 0.979776 0.199959 -0.007431 3
-0.210579 -0.147204 -0.571517 0.972011 0.231943 0.037374 3
-0.213700 -0.146808 -0.551802 0.986343 0.146375 0.075514 3
-0.214455 -0.146533 -0.517337 0.987140 0.157832 -0.025364 3
-0.211381 -0.146197 -0.459061 0.979645 0.197335 -0.036802 3
-0.213730 -0.145526 -0.395467 0.995136 0.006143 0.098318 3
-0.216775 -0.145160 -0.375205 0.963710 -0.143174 0.225309 3
-0.221077 -0.144794 -0.362937 0.921732 -0.187515 0.339482 3
-0.225632 -0.144397 -0.352084 0.897772 -0.214635 0.384626 3
-0.218422 -0.137256 -0.192229 0.959212 0.277052 0.056164 3
-0.219338 -0.143146 -0.156378 0.941612 0.335670 0.026332 3
-0.219300 -0.142779 -0.117045 0.907630 0.419761 -0.003005 3
-0.219826 -0.142444 -0.081214 0.882281 0.468726 0.043315 3
-0.222436 -0.142078 -0.058322 0.881945 0.453204 0.129538 3
-0.225380 -0.141742 -0.037457 0.981846 0.163170 0.096716 3
-0.227799 -0.141406 -0.013365 0.993940 0.036332 0.103745 3
-0.230347 -0.141040 0.009881 0.987261 0.097956 0.125383 3
-0.233452 -0.140674 0.030731 0.973388 0.147434 0.175438 2
-0.237382 -0.140399 0.046741 0.927999 0.266085 0.260800 2
-0.241929 -0.140002 0.059402 0.937000 0.209658 0.279418 2
-0.248429 -0.139239 0.096273 0.997170 -0.016066 0.073444 2
-0.251671 -0.138537 0.151992 0.998600 0.003668 0.052769 2
-0.252961 -0.138202 0.182351 0.992076 0.121137 0.033328 2
-0.257103 -0.137500 0.234765 0.956047 0.149663 0.252143 2
-0.261658 -0.137103 0.245557 0.950593 0.205894 0.232335 2
-0.264473 -0.136767 0.267230 0.992180 0.116608 0.044514 2
-0.262139 -0.136127 0.359941 0.999720 0.012165 -0.020281 2
-0.262101 -0.135791 0.399326 0.994947 0.098792 0.017910 2
-0.265252 -0.129230 0.416724 0.955884 0.235309 0.175830 2
-0.275330 -0.134234 0.471193 0.933737 0.334830 0.126587 2
-0.282265 -0.127399 0.505861 0.933910 0.333003 0.130083 2
-0.281365 -0.133594 0.513254 0.935373 0.291096 0.200850 2
-0.285126 -0.133227 0.528518 0.947261 0.201111 0.249504 2
-0.289032 -0.132922 0.543392 0.953062 0.147810 0.264244 2
-0.293099 -0.132556 0.557206 0.930752 0.177876 0.319471 2
-0.297761 -0.132129 0.567748 0.880599 0.150847 0.449211 2
-0.307709 -0.125201 0.582631 0.875779 0.086380 0.474921 2
-0.312554 -0.131122 0.593774 0.951153 0.040781 0.306016 2
-0.316445 -0.130786 0.611324 0.968329 0.167971 0.184727 2
-0.319817 -0.130572 0.630464 0.927488 0.308990 0.210456 2
-0.324227 -0.130145 0.641397 0.855677 0.346102 0.384746 2
-0.328759 -0.129657 0.650976 0.957112 0.088373 0.275911 2
-0.332161 -0.129260 0.668319 0.988594 -0.060556 0.137893 2
-0.334481 -0.128924 0.692680 0.992778 -0.046045 0.110778 2
-0.336922 -0.128558 0.716619 0.990601 0.127793 0.048777 2
-0.337822 -0.128223 0.750177 0.999932 0.007628 -0.008848 2
-0.337227 -0.127887 0.793042 0.989804 -0.136912 0.039280 2
-0.339592 -0.127551 0.817371 0.960966 -0.226449 0.158953 2
-0.343773 -0.127185 0.830432 0.942312 -0.041644 0.332136 2
-0.347847 -0.126788 0.844074 0.962886 0.172253 0.207798 2
-0.351098 -0.126422 0.862476 0.967751 0.224444 0.114377 2
-0.353531 -0.126086 0.886405 0.969078 0.218822 0.114038 2
-0.357239 -0.119586 0.901550 0.942113 0.238183 0.235991 2
-0.361260 -0.125476 0.918811 0.841384 0.316246 0.438248 2
-0.371056 -0.124591 0.934467 0.864909 0.233099 0.444520 2
-0.380066 -0.124072 0.958886 0.931838 0.274769 0.237022 2
-0.387368 -0.116962 0.988473 0.933283 0.335729 0.127554 2
-0.392502 -0.122455 1.036138 0.957567 0.252144 0.139602 2
-0.395051 -0.122150 1.059371 0.997063 0.053823 0.054490 2
-0.395104 -0.121814 1.098233 0.976876 0.212522 -0.023418 2
-0.392449 -0.128009 1.117088 0.953282 0.299968 -0.035677 2
-0.393723 -0.121448 1.145946 0.968120 0.250446 0.004471 2
-0.395638 -0.121112 1.173148 0.972056 0.137320 0.190394 2
-0.399781 -0.120746 1.186471 0.959713 0.002165 0.280975 2
-0.403611 -0.120380 1.201450 0.958919 0.064731 0.276197 2
-0.407807 -0.119983 1.214681 0.952019 0.045647 0.302616 2
-0.411858 -0.119678 1.227756 0.968590 -0.101945 0.226806 2
-0.414071 -0.113086 1.253381 0.984797 -0.143530 0.097843 2
-0.416787 -0.112781 1.277967 0.992260 0.016901 0.123023 2
-0.422410 -0.118274 1.320245 0.983214 0.081607 0.163187 2
-0.425759 -0.117908 1.336015 0.964749 0.157555 0.210799 2
-0.429451 -0.117511 1.352004 0.975561 0.040553 0.215952 2
-0.433213 -0.117114 1.371526 0.951395 -0.277510 0.133553 2
-0.435891 -0.116687 1.393892 0.881196 -0.456375 0.123351 2
-0.438813 -0.116382 1.414241 0.892607 -0.418072 0.168725 2
-0.442238 -0.116046 1.431806 0.956412 -0.249607 0.151565 2
-0.445138 -0.115741 1.452773 0.972569 -0.219220 0.077792 2
-0.446473 -0.115375 1.483701 0.981631 -0.184865 0.047167 2
-0.448113 -0.115039 1.512841 0.991209 -0.066573 0.114336 2
-0.451432 -0.108508 1.528630 0.977761 0.037913 0.206268 2
-0.455262 -0.114307 1.545945 0.961859 0.058029 0.267319 2
-0.463341 -0.113605 1.572589 0.964698 0.031739 0.261440 2
-0.466851 -0.113177 1.589719 0.972121 0.119029 0.202023 2
-0.470421 -0.112811 1.607135 0.940607 0.294400 0.169077 2
-0.473862 -0.112598 1.626910 0.917882 0.373740 0.133457 2
-0.476891 -0.112384 1.650436 0.947791 0.293411 0.124907 2
-0.479950 -0.112018 1.670335 0.962136 0.187738 0.197605 2
-0.487809 -0.111072 1.695709 0.952252 0.045338 0.301927 2
-0.491906 -0.110705 1.709592 0.965052 -0.024028 0.260955 2
-0.503945 -0.109576 1.751771 0.965565 -0.047802 0.255733 2
-0.510857 -0.108905 1.786376 0.974805 -0.054267 0.216355 2
-0.515091 -0.108539 1.799129 0.900374 0.253880 0.353372 2
-0.519547 -0.108142 1.810882 0.931227 0.325511 0.163890 2
-0.522271 -0.107837 1.833375 0.993134 0.116938 -0.003082 2
-0.519730 -0.107471 1.888297 0.998813 -0.032199 -0.036536 2
-0.518937 -0.107135 1.932338 0.988513 -0.149044 0.025055 2
-0.522469 -0.106433 1.988645 0.964390 -0.260177 0.047543 2
-0.522835 -0.106128 2.025522 0.986927 -0.161003 -0.007226 2
-0.522309 -0.105792 2.067909 0.998659 -0.030251 0.042017 2
-0.525132 -0.105517 2.089305 0.957917 0.064470 0.279712 2
-0.530236 -0.105151 2.096584 0.633797 0.059283 0.771225 2
-0.536240 -0.104785 2.098701 0.432024 -0.077750 0.898504 2
-0.541871 -0.104358 2.102300 0.803445 -0.239283 0.545179 2
-0.545533 -0.097796 2.115499 0.933393 -0.202694 0.296131 1
-0.549447 -0.097369 2.132859 0.975922 -0.119724 0.182326 1
-0.558144 -0.102954 2.172048 0.950238 -0.038143 0.309182 1
-0.561928 -0.102588 2.179803 0.880693 0.085242 0.465954 1
-0.565728 -0.102038 2.187474 0.837408 0.116064 0.534113 1
-0.571732 -0.101672 2.195153 0.804460 0.164250 0.570847 1
-0.576813 -0.101306 2.202886 0.825073 0.115849 0.553023 1
-0.581849 -0.101001 2.209626 0.812993 0.039295 0.580946 1
-0.586564 -0.094409 2.215905 0.852998 0.078096 0.516038 1
-0.596833 -0.099902 2.234918 0.865708 -0.007420 0.500495 1
-0.606515 -0.099170 2.250926 0.843682 -0.028938 0.536063 1
-0.616486 -0.092395 2.266565 0.852652 0.055125 0.519563 1
-0.616601 -0.098468 2.267270 0.865848 0.032781 0.499232 1
-0.631768 -0.097552 2.296874 0.884979 0.144131 0.442763 1
-0.209435 -0.141986 -0.684216 0.989005 -0.097393 0.111284 3
-0.211770 -0.141650 -0.659527 0.998495 0.013821 0.053079 3
-0.211876 -0.140979 -0.581940 0.973073 0.229604 0.020283 3
-0.213875 -0.140643 -0.555289 0.988501 0.137028 0.063941 3
-0.215241 -0.140277 -0.524644 0.992350 0.123445 -0.001448 3
-0.213410 -0.139972 -0.474128 0.974434 0.222481 -0.031302 3
-0.213082 -0.139636 -0.432948 0.941810 0.336114 0.004721 3
-0.213975 -0.139300 -0.399388 0.973341 0.223696 0.050665 3
-0.216500 -0.138904 -0.375945 0.972757 0.156017 0.171473 3
-0.220704 -0.138599 -0.362906 0.950451 0.036049 0.308777 3
-0.225030 -0.138202 -0.350733 0.971179 -0.064578 0.229436 3
-0.220757 -0.136890 -0.167620 0.969154 0.244097 0.034019 3
-0.222168 -0.136249 -0.098170 0.953810 0.299637 0.021567 3
-0.224099 -0.135852 -0.071049 0.948875 0.307820 0.069888 3
-0.225777 -0.135516 -0.042367 0.996221 0.070443 0.050814 3
-0.227593 -0.135150 -0.014538 0.994609 0.013822 0.102774 3
-0.230683 -0.134784 0.005349 0.977425 0.125201 0.170188 3
-0.234177 -0.134479 0.022882 0.911700 0.349269 0.216367 3
-0.237969 -0.134082 0.038846 0.881730 0.420516 0.213819 2
-0.242074 -0.133746 0.054004 0.916830 0.322622 0.235240 2
-0.245865 -0.133380 0.070764 0.976262 0.155491 0.150779 2
-0.248383 -0.132983 0.093280 0.996397 0.044628 0.072117 2
-0.249566 -0.132648 0.123878 0.998017 -0.016520 0.060730 2
-0.251709 -0.132312 0.148576 0.996719 -0.012986 0.079890 2
-0.253716 -0.132007 0.175178 0.994266 0.095196 0.048720 2
-0.257592 -0.131274 0.229394 0.894494 0.399645 0.200409 2
-0.261986 -0.130908 0.241143 0.902649 0.390822 0.180228 2
-0.264748 -0.130572 0.263147 0.999564 0.028968 -0.005769 2
-0.262871 -0.124011 0.311502 0.999806 0.011272 -0.016156 2
-0.262543 -0.129596 0.394212 0.988886 0.143375 0.039347 2
-0.273163 -0.122272 0.443137 0.950434 0.240264 0.197355 2
-0.276299 -0.128070 0.464267 0.954289 0.240618 0.177299 2
-0.279473 -0.127734 0.483777 0.951634 0.277494 0.131871 2
-0.285470 -0.127002 0.524625 0.946114 0.248430 0.207727 2
-0.289399 -0.126636 0.539293 0.934427 0.243956 0.259485 2
-0.293580 -0.126300 0.552865 0.885003 0.350335 0.306652 2
-0.298111 -0.125964 0.564411 0.862366 0.340987 0.374236 2
-0.302933 -0.125659 0.573638 0.854863 0.303642 0.420726 2
-0.312386 -0.124896 0.593646 0.945998 0.087471 0.312150 2
-0.316514 -0.124560 0.609046 0.967918 0.089260 0.234878 2
-0.320336 -0.124316 0.625373 0.937525 0.234162 0.257323 2
-0.324608 -0.123828 0.637082 0.904631 0.277651 0.323347 2
-0.328667 -0.123370 0.649116 0.973677 0.083224 0.212196 2
-0.331589 -0.123065 0.669528 0.991940 -0.067463 0.107253 2
-0.336991 -0.122363 0.713823 0.998484 0.011296 0.053869 2
-0.336113 -0.121692 0.797469 0.993700 -0.107339 0.032242 2
-0.338677 -0.121356 0.820716 0.961572 -0.187463 0.200591 2
-0.343407 -0.120990 0.830407 0.895888 -0.065713 0.439393 2
-0.347992 -0.120624 0.840848 0.951517 0.092666 0.293306 2
-0.351662 -0.120196 0.856620 0.976060 0.162835 0.144196 2
-0.357506 -0.113391 0.898217 0.984707 0.109058 0.135859 2
-0.361626 -0.119311 0.914951 0.899765 0.227288 0.372509 2
-0.366478 -0.118945 0.923992 0.847467 0.243228 0.471847 2
-0.371277 -0.118518 0.932618 0.875853 0.171187 0.451195 2
-0.376023 -0.118213 0.942241 0.871277 0.267479 0.411498 2
-0.380593 -0.117847 0.953691 0.926168 0.255930 0.276969 2
-0.384491 -0.117450 0.968963 0.952823 0.248979 0.173602 2
-0.390267 -0.116595 1.008491 0.973093 0.191863 0.127589 2
-0.392968 -0.116260 1.030870 0.988402 0.118803 0.094586 2
-0.395119 -0.115893 1.056579 0.992589 0.097016 0.073181 2
-0.396569 -0.115527 1.086719 0.987187 0.159509 0.004344 2
-0.395638 -0.115253 1.131622 0.981245 0.192016 -0.016981 2
-0.395890 -0.114886 1.169168 0.984579 0.154919 0.081262 2
-0.399598 -0.114490 1.185285 0.962986 0.077107 0.258289 2
-0.403603 -0.107959 1.197000 0.958617 0.047044 0.280785 2
-0.407731 -0.113788 1.212819 0.970165 -0.005753 0.242377 2
-0.411271 -0.113452 1.230314 0.978362 -0.140902 0.151506 2
-0.419709 -0.112536 1.298967 0.978461 0.144683 0.147242 2
-0.422722 -0.112048 1.316730 0.962376 0.201961 0.181779 2
-0.425965 -0.111621 1.331043 0.960761 0.194596 0.197663 2
-0.429154 -0.111224 1.348668 0.990689 -0.020829 0.134541 2
-0.431832 -0.110828 1.377631 0.971432 -0.225342 0.074433 2
-0.433808 -0.110461 1.404924 0.914756 -0.384718 0.123339 2
-0.437401 -0.110187 1.421449 0.899187 -0.362999 0.244324 2
-0.441399 -0.109820 1.435268 0.947760 -0.261831 0.182197 2
-0.444329 -0.109485 1.455823 0.984218 -0.154866 0.085626 2
-0.445824 -0.109180 1.486020 0.995599 -0.068699 0.063742 2
-0.447968 -0.108844 1.511770 0.989701 0.050116 0.134093 2
-0.455056 -0.108142 1.544820 0.964269 -0.040748 0.261771 2
-0.463036 -0.107379 1.572629 0.961575 -0.091208 0.258950 2
-0.466797 -0.107013 1.588819 0.963162 -0.063080 0.261419 2
-0.470887 -0.106647 1.602496 0.953535 0.159805 0.255407 2
-0.474801 -0.106311 1.618060 0.959314 0.242468 0.144658 2
-0.477662 -0.106128 1.642894 0.985092 0.143019 0.095605 2
-0.480195 -0.105640 1.667438 0.987152 0.037276 0.155374 2
-0.483613 -0.105243 1.682666 0.963405 -0.049276 0.263481 2
-0.487565 -0.104816 1.694778 0.952949 -0.059149 0.297304 2
-0.491204 -0.098285 1.709441 0.963536 -0.102557 0.247146 2
-0.495568 -0.104114 1.724862 0.962060 -0.065127 0.264952 2
-0.499543 -0.103717 1.738385 0.956022 -0.096813 0.276854 2
-0.503365 -0.103412 1.752847 0.960436 -0.188274 0.205221 2
-0.506623 -0.103107 1.771528 0.954785 -0.222225 0.197486 2
-0.510460 -0.102710 1.786462 0.939533 -0.088186 0.330909 2
-0.515214 -0.102374 1.795774 0.862353 0.124818 0.490681 2
-0.520165 -0.101947 1.804769 0.942094 0.213375 0.258708 2
-0.523087 -0.101581 1.825855 0.998943 0.045584 0.005994 2
-0.519532 -0.101276 1.887096 0.998728 -0.022591 -0.045081 2
-0.518563 -0.100940 1.932271 0.999819 0.019008 -0.000586 2
-0.519646 -0.100604 1.964645 0.996888 -0.060665 0.050344 2
-0.521393 -0.100238 1.992959 0.994054 -0.098241 0.046954 2
-0.522454 -0.099933 2.025489 0.999228 -0.036409 0.014734 2
-0.522805 -0.099597 2.062404 0.991331 0.118467 0.056811 2
-0.525452 -0.099261 2.085078 0.928264 0.309095 0.206849 2
-0.530259 -0.098834 2.094028 0.748764 0.368218 0.551151 2
-0.535966 -0.098559 2.098054 0.616060 0.110141 0.779961 2
-0.541115 -0.098132 2.104198 0.870624 -0.127759 0.475070 2
-0.552025 -0.084521 2.151559 0.978194 -0.045109 0.202734 1
-0.562020 -0.095874 2.179542 0.849221 -0.002148 0.528034 1
-0.566659 -0.095599 2.185771 0.781107 0.091459 0.617662 1
-0.571236 -0.089252 2.190433 0.814989 0.170584 0.553799 1
-0.576470 -0.095172 2.200704 0.827508 0.175230 0.533409 1
-0.591706 -0.094073 2.225360 0.895509 0.007056 0.444987 1
-0.596802 -0.093677 2.235135 0.878986 -0.040175 0.475152 1
-0.601563 -0.087268 2.244313 0.850292 -0.046421 0.524260 1
-0.611352 -0.092731 2.258447 0.827783 0.036661 0.559849 1
-0.626740 -0.091632 2.284404 0.880499 0.105096 0.462252 1
-0.211533 -0.135394 -0.660458 0.995293 0.062038 0.074453 3
-0.213387 -0.135058 -0.632819 0.984099 0.175844 0.025049 3
-0.213471 -0.134723 -0.594256 0.969065 0.246716 0.006677 3
-0.214394 -0.134387 -0.560881 0.984524 0.171236 0.037281 3
-0.215584 -0.134082 -0.529080 0.992356 0.121357 0.022394 3
-0.215684 -0.133716 -0.490630 0.961502 0.274762 -0.004525 3
-0.215951 -0.133044 -0.414000 0.917472 0.397409 0.017644 3
-0.217408 -0.132709 -0.383992 0.930870 0.354855 0.086946 3
-0.220826 -0.132373 -0.366130 0.946894 0.237745 0.216492 3
-0.224732 -0.132007 -0.351271 0.982409 0.115309 0.146886 3
-0.226456 -0.131671 -0.322831 0.990685 0.122913 0.058611 3
-0.221734 -0.130694 -0.176133 0.968697 0.244978 0.040157 3
-0.220032 -0.131030 -0.204684 0.929151 0.366157 0.051063 3
-0.222619 -0.130359 -0.142457 0.983451 0.180037 0.020252 3
-0.223290 -0.130023 -0.107478 0.989260 0.142652 0.031866 3
-0.224923 -0.129657 -0.078515 0.998489 0.036298 0.041263 3
-0.225922 -0.129291 -0.045596 0.999398 0.005650 0.034233 3
-0.227135 -0.128955 -0.014039 0.996642 -0.005071 0.081722 3
-0.230721 -0.128589 0.002807 0.965177 0.122519 0.231133 3
-0.234902 -0.128223 0.015394 0.909858 0.282065 0.304298 3
-0.238961 -0.127826 0.028526 0.916818 0.339611 0.210022 3
-0.246056 -0.120929 0.062267 0.989887 0.067626 0.124705 2
-0.248444 -0.126788 0.089631 0.995297 0.071875 0.064944 2
-0.249497 -0.126453 0.121112 0.999250 -0.005304 0.038363 2
-0.251343 -0.126086 0.148397 0.984648 -0.157982 0.074235 2
-0.253373 -0.125781 0.174926 0.983930 -0.159362 0.080532 2
-0.255555 -0.125415 0.200460 0.981464 0.156225 0.111005 2
-0.259392 -0.125049 0.215799 0.753211 0.612740 0.239213 2
-0.263581 -0.124682 0.228811 0.833829 0.526949 0.164480 2
-0.265160 -0.124316 0.258119 0.999435 0.025289 -0.022133 2
-0.262970 -0.123706 0.350059 0.998440 0.055829 -0.000191 2
-0.266076 -0.123035 0.409656 0.935924 0.323657 0.138897 2
-0.269776 -0.122699 0.425952 0.909833 0.371889 0.184128 2
-0.276589 -0.121905 0.460941 0.980253 0.085449 0.178334 2
-0.280083 -0.121570 0.478311 0.979194 0.120540 0.163248 2
-0.285981 -0.120837 0.519430 0.960863 0.228876 0.156072 2
-0.289872 -0.120410 0.534383 0.924010 0.286487 0.253240 2
-0.290391 -0.114245 0.528758 0.889649 0.344896 0.299284 2
-0.298783 -0.119861 0.558729 0.836007 0.442283 0.324773 2
-0.303399 -0.119525 0.569265 0.851707 0.399214 0.339446 2
-0.307976 -0.119067 0.579702 0.894064 0.254506 0.368614 2
-0.312409 -0.118701 0.591708 0.932402 0.194915 0.304361 2
-0.316620 -0.118365 0.605840 0.944879 0.198602 0.260311 2
-0.320733 -0.118091 0.619809 0.881231 0.369820 0.294391 2
-0.324982 -0.117663 0.631559 0.890283 0.356916 0.282856 2
-0.328812 -0.117236 0.645612 0.971737 0.169954 0.163840 2
-0.331215 -0.116870 0.669555 0.996174 0.031511 0.081509 2
-0.333390 -0.116473 0.694764 0.987891 -0.088900 0.127155 2
-0.336663 -0.116107 0.713422 0.993219 -0.026703 0.113149 2
-0.338074 -0.115741 0.743781 0.998548 0.052781 -0.010738 2
-0.335953 -0.115466 0.796077 0.999017 0.043306 -0.009488 2
-0.338105 -0.115130 0.821863 0.964150 -0.040334 0.262273 2
-0.347802 -0.114398 0.839691 0.911985 -0.001011 0.410222 2
-0.351891 -0.113971 0.852891 0.981632 0.088471 0.169034 2
-0.362137 -0.106891 0.909210 0.914027 0.172470 0.367164 2
-0.366738 -0.112842 0.921626 0.860424 0.240467 0.449273 2
-0.381043 -0.111560 0.948949 0.921836 0.230252 0.311772 2
-0.384858 -0.111072 0.964277 0.974456 0.108565 0.196595 2
-0.387856 -0.110675 0.983640 0.984398 0.101283 0.143886 2
-0.390717 -0.110370 1.003526 0.992007 0.009159 0.125851 2
-0.393197 -0.110034 1.027021 0.994966 -0.038017 0.092727 2
-0.395241 -0.109698 1.053445 0.994327 0.051615 0.093001 2
-0.397500 -0.109332 1.078515 0.984794 0.172519 0.020441 2
-0.396279 -0.108661 1.164340 0.990219 0.127765 0.056065 2
-0.399483 -0.108325 1.183542 0.973412 0.042749 0.225037 2
-0.407563 -0.107623 1.211635 0.978641 -0.089433 0.185104 2
-0.413956 -0.107043 1.254073 0.988781 -0.000786 0.149370 2
-0.417260 -0.106769 1.274919 0.954198 0.257000 0.153158 2
-0.420311 -0.106463 1.294824 0.961296 0.232232 0.148253 2
-0.423920 -0.099719 1.307519 0.970468 0.175159 0.165865 2
-0.426453 -0.105365 1.326074 0.979538 0.129555 0.154015 2
-0.428917 -0.105029 1.345983 0.996429 -0.054085 0.064841 2
-0.430558 -0.104663 1.383386 0.984343 -0.164466 0.063397 2
-0.432686 -0.104236 1.411388 0.963091 -0.225513 0.146966 2
-0.436570 -0.103992 1.425245 0.925463 -0.259300 0.276191 2
-0.440606 -0.103625 1.438497 0.936908 -0.293830 0.189387 2
-0.443406 -0.103229 1.459644 0.959465 -0.259049 0.110997 2
-0.445565 -0.102984 1.485616 0.991407 -0.087515 0.097230 2
-0.448258 -0.102618 1.507629 0.977670 0.144292 0.152775 2
-0.451478 -0.102252 1.526098 0.975894 0.151482 0.157112 2
-0.458153 -0.095294 1.559774 0.966807 -0.084128 0.241261 2
-0.465996 -0.094623 1.589959 0.948085 -0.118157 0.295253 2
-0.470833 -0.100421 1.600747 0.936285 -0.007116 0.351168 2
-0.475144 -0.100085 1.612775 0.982642 0.071365 0.171235 2
-0.478005 -0.099719 1.637197 0.995597 0.038142 0.085622 2
-0.479889 -0.099231 1.666442 0.995118 0.000637 0.098688 2
-0.482468 -0.092761 1.684892 0.963473 -0.104935 0.246390 2
-0.487084 -0.098651 1.695243 0.943698 -0.116650 0.309558 2
-0.494996 -0.097888 1.725627 0.953211 -0.168989 0.250663 2
-0.498871 -0.097522 1.739734 0.948825 -0.207655 0.237930 2
-0.502419 -0.097186 1.756126 0.953104 -0.239653 0.184823 2
-0.505669 -0.096850 1.775159 0.945528 -0.255212 0.202097 2
-0.509934 -0.096484 1.787420 0.886800 -0.152983 0.436099 2
-0.515084 -0.096088 1.794650 0.786399 -0.040209 0.616408 2
-0.520188 -0.095752 1.802373 0.966200 0.036219 0.255235 2
-0.522965 -0.095416 1.824291 0.998764 -0.048971 -0.008447 2
-0.519677 -0.095050 1.883836 0.998667 -0.034936 -0.037998 2
-0.519143 -0.094745 1.926280 0.997536 0.069668 0.008221 2
-0.520127 -0.094409 1.959327 0.984504 0.171847 0.034946 2
-0.521348 -0.094043 1.990825 0.994863 0.098705 0.022479 2
-0.522309 -0.093677 2.023973 0.999551 0.008318 0.028798 2
-0.523568 -0.093371 2.055274 0.988045 0.133017 0.077937 2
-0.526421 -0.093036 2.076646 0.913229 0.352781 0.203860 2
-0.530854 -0.092639 2.088224 0.828906 0.418883 0.370745 2
-0.535813 -0.092151 2.095742 0.814377 0.181396 0.551257 2
-0.540574 -0.091876 2.105178 0.921395 -0.078860 0.380542 1
-0.544945 -0.091540 2.116744 0.949396 -0.052713 0.309626 1
-0.548882 -0.091144 2.132533 0.975360 -0.064744 0.210908 1
-0.556199 -0.084155 2.169418 0.952508 -0.002308 0.304504 1
-0.561120 -0.083880 2.178579 0.817478 0.026703 0.575341 1
-0.576172 -0.088946 2.197831 0.838884 0.144449 0.524794 1
-0.580864 -0.082324 2.204370 0.869494 0.059180 0.490385 1
-0.606286 -0.086932 2.251125 0.802833 0.013694 0.596047 1
-0.610909 -0.080218 2.256183 0.813096 0.065513 0.578431 1
-0.621499 -0.085681 2.273883 0.868325 0.073917 0.490457 1
-0.626534 -0.085345 2.283069 0.883673 0.006115 0.468065 1
-0.214287 -0.128863 -0.640845 0.964577 0.260477 0.041751 3
-0.215294 -0.128528 -0.608006 0.955694 0.294125 0.011781 3
-0.216149 -0.127856 -0.534995 0.974305 0.224830 0.013456 3
-0.217072 -0.127490 -0.501637 0.973375 0.227840 0.025094 3
-0.218339 -0.127154 -0.470423 0.932865 0.359414 0.024161 3
-0.218957 -0.126819 -0.435113 0.921506 0.388310 0.006517 3
-0.219307 -0.126483 -0.398139 0.945103 0.325839 0.024698 3
-0.221406 -0.126117 -0.372084 0.967495 0.220120 0.124499 3
-0.224930 -0.125781 -0.354935 0.968494 0.184679 0.167072 3
-0.227677 -0.125415 -0.332801 0.955219 0.272485 0.115358 3
-0.221894 -0.124774 -0.218566 0.979927 0.198869 0.013929 3
-0.222542 -0.124438 -0.183528 0.993469 0.112065 0.021446 3
-0.223397 -0.124103 -0.149646 0.999693 0.022393 0.010621 3
-0.223427 -0.123736 -0.110768 0.999201 -0.026952 0.029508 3
-0.225663 -0.116870 -0.048785 0.998837 -0.018384 0.044579 3
-0.227036 -0.122729 -0.015799 0.987210 0.091156 0.130791 3
-0.230637 -0.122394 0.001201 0.945431 0.127815 0.299707 3
-0.239396 -0.121631 0.023082 0.951508 0.111599 0.286666 3
-0.242989 -0.121234 0.039851 0.975548 0.139028 0.170227 2
-0.248719 -0.120593 0.084712 0.995781 0.072148 0.056692 2
-0.249634 -0.120288 0.117633 0.999922 0.010044 0.007445 2
-0.250062 -0.119891 0.154016 0.978652 -0.199796 0.048179 2
-0.251900 -0.119525 0.181697 0.964941 -0.236360 0.114116 2
-0.255806 -0.119159 0.196550 0.911487 0.200199 0.359321 2
-0.261010 -0.118823 0.203300 0.552162 0.730311 0.402198 2
-0.266137 -0.118457 0.210552 0.472108 0.831856 0.291770 2
-0.262780 -0.117816 0.309730 0.999940 0.000040 -0.010993 2
-0.263230 -0.117480 0.346025 0.996327 0.083462 0.019147 2
-0.264313 -0.117145 0.378392 0.971981 0.223735 0.072086 2
-0.267312 -0.116778 0.400804 0.926866 0.343394 0.151656 2
-0.270691 -0.116412 0.417716 0.925319 0.342461 0.162805 2
