-0.474186 -0.489702 2.040301 0.825030 -0.155826 0.543180 1
-0.470570 -0.495439 2.033495 0.772166 -0.024427 0.634951 1
-0.463398 -0.507707 2.028460 0.731979 0.176490 0.658071 1
-0.451039 -0.510377 2.016314 0.750471 0.177958 0.636494 1
-0.447102 -0.523820 2.013751 0.785129 0.083034 0.613741 1
-0.443882 -0.527559 2.009142 0.819344 -0.103940 0.563801 1
-0.436772 -0.526506 1.999438 0.807107 -0.160318 0.568222 1
-0.433308 -0.530244 1.993365 0.821308 -0.175128 0.542939 1
-0.425938 -0.537767 1.980822 0.808079 -0.114816 0.577776 1
-0.418721 -0.545381 1.970507 0.738568 -0.098001 0.667018 1
-0.412098 -0.552629 1.962512 0.729670 -0.102650 0.676051 1
-0.408909 -0.556215 1.957751 0.788911 -0.049450 0.612514 1
-0.405369 -0.565309 1.952166 0.848727 0.038877 0.527400 1
-0.397831 -0.572725 1.941546 0.810979 0.055437 0.582443 1
-0.137120 0.501982 1.674059 0.760578 -0.094910 0.642272 1
-0.148198 0.513945 1.688464 0.758740 -0.087000 0.645557 1
-0.151646 0.517897 1.693377 0.776412 -0.098364 0.622503 1
-0.159397 0.534194 1.709795 0.820130 -0.146461 0.553115 1
-0.176045 0.549788 1.729418 0.737223 -0.040255 0.674449 1
-0.183216 0.549025 1.737139 0.737334 -0.124111 0.664030 1
-0.190953 0.557036 1.747210 0.749176 -0.111544 0.652911 1
-0.198536 0.564772 1.757067 0.756556 -0.152724 0.635845 1
-0.213169 0.589507 1.782427 0.730367 -0.087165 0.677470 1
-0.221012 0.588774 1.790392 0.739504 -0.057943 0.670654 1
-0.230275 0.596007 1.803332 0.837073 -0.107813 0.536363 1
-0.233952 0.608962 1.812884 0.846228 -0.110947 0.521141 1
-0.237629 0.603560 1.818041 0.840067 -0.094332 0.534218 1
-0.244221 0.620528 1.828845 0.788230 -0.084435 0.609561 1
-0.258747 0.627226 1.849108 0.782752 -0.052819 0.620088 1
-0.270070 0.638640 1.868090 0.850039 0.078824 0.520788 1
-0.278080 0.655181 1.878069 0.827060 -0.014475 0.561927 1
-0.140934 0.523619 1.682848 0.723962 -0.124445 0.678522 1
-0.151570 0.526610 1.695178 0.825669 -0.122073 0.550789 1
-0.155659 0.538878 1.704546 0.852941 -0.133264 0.504711 1
-0.155888 0.547637 1.707659 0.818965 -0.094372 0.566030 1
-0.159977 0.550185 1.712878 0.735211 0.015176 0.677668 1
-0.187352 0.561751 1.744006 0.724501 -0.151485 0.672422 1
-0.190281 0.583510 1.752520 0.757800 -0.125154 0.640371 1
-0.194127 0.579039 1.756182 0.788775 -0.194525 0.583090 1
-0.205662 0.582366 1.772509 0.771623 -0.144833 0.619372 1
-0.220936 0.598509 1.791522 0.748790 -0.097448 0.655604 1
-0.224797 0.602522 1.796923 0.810670 -0.107318 0.575584 1
-0.233876 0.618636 1.814318 0.822515 -0.070049 0.564413 1
-0.258686 0.636794 1.848925 0.804251 0.030568 0.593503 1
-0.263157 0.648772 1.853991 0.850071 0.060309 0.523203 1
-0.269902 0.647750 1.865984 0.846460 0.085625 0.525522 1
-0.482029 -0.491853 2.052844 0.841580 -0.062485 0.536506 1
-0.473973 -0.499605 2.038409 0.809465 0.120908 0.574585 1
-0.465947 -0.505266 2.031451 0.754126 0.183658 0.630527 1
-0.458653 -0.510820 2.025683 0.759636 0.204777 0.617268 1
-0.441227 -0.539903 2.001391 0.818909 -0.120574 0.561115 1
-0.426152 -0.545732 1.979235 0.821197 -0.100320 0.561757 1
-0.423115 -0.558351 1.972918 0.768312 -0.102845 0.631759 1
-0.418995 -0.553697 1.968890 0.713806 -0.032258 0.699600 1
-0.412388 -0.563295 1.961260 0.739598 -0.008841 0.672990 1
-0.408299 -0.569719 1.957415 0.772558 0.072996 0.630734 1
-0.403935 -0.580644 1.953234 0.845934 0.085503 0.526389 1
-0.390324 -0.587449 1.931689 0.827008 0.055676 0.559426 1
-0.125706 0.507796 1.661608 0.764320 -0.100994 0.636879 1
-0.125904 0.516616 1.662920 0.782545 -0.095214 0.615270 1
-0.137455 0.519667 1.678362 0.767784 -0.129987 0.627385 1
-0.147633 0.531325 1.690753 0.754225 -0.059706 0.653895 1
-0.151493 0.535231 1.696337 0.842736 -0.086104 0.531397 1
-0.176014 0.568114 1.732989 0.773490 -0.137064 0.618810 1
-0.169102 0.559157 1.721789 0.779150 -0.046620 0.625102 1
-0.179417 0.571974 1.738146 0.742369 -0.130505 0.657158 1
-0.197895 0.591155 1.764849 0.791533 -0.141718 0.594468 1
-0.205326 0.598570 1.775988 0.754602 -0.125527 0.644065 1
-0.209446 0.602263 1.780901 0.695249 -0.070762 0.715277 1
-0.221058 0.605971 1.793200 0.740082 -0.082571 0.667428 1
-0.240528 0.625762 1.824694 0.813541 -0.107433 0.571497 1
-0.247242 0.633116 1.836047 0.787008 -0.092780 0.609927 1
-0.259114 0.644057 1.848773 0.737566 0.005839 0.675250 1
-0.266377 0.652800 1.858935 0.842689 -0.040017 0.536912 1
-0.133564 0.524489 1.674395 0.814262 -0.035477 0.579412 1
-0.137104 0.528319 1.679247 0.752642 -0.031698 0.657667 1
-0.143666 0.536116 1.686297 0.739465 -0.017951 0.672956 1
-0.147374 0.540038 1.690844 0.795220 -0.091154 0.599430 1
-0.151722 0.543822 1.698687 0.851652 -0.148202 0.502718 1
-0.214253 0.614516 1.786242 0.738889 -0.040363 0.672617 1
-0.218525 0.618163 1.791461 0.773995 -0.073308 0.628934 1
-0.222508 0.624388 1.797686 0.824572 -0.096462 0.557473 1
-0.247197 0.641417 1.836443 0.755176 -0.001358 0.655521 1
-0.258900 0.654128 1.848895 0.763930 -0.069878 0.641505 1
-0.495259 -0.493471 2.071063 0.803220 -0.029791 0.594937 1
-0.485493 -0.496461 2.057909 0.813571 -0.027691 0.580805 1
-0.481221 -0.508104 2.050555 0.770127 0.134030 0.623651 1
-0.468830 -0.510896 2.039111 0.735258 0.281311 0.616653 1
-0.466450 -0.512758 2.034960 0.795875 0.231569 0.559427 1
-0.461781 -0.517167 2.031786 0.779881 0.127173 0.612873 1
-0.455388 -0.532838 2.025012 0.797081 0.010711 0.603777 1
-0.427143 -0.554704 1.978411 0.797128 -0.105783 0.594472 1
-0.122349 0.529875 1.657885 0.822310 -0.006082 0.569007 1
-0.133183 0.541609 1.674670 0.822031 -0.018491 0.569143 1
-0.136509 0.545653 1.678912 0.754981 -0.023518 0.655325 1
-0.144307 0.553450 1.689715 0.830216 -0.125433 0.543147 1
-0.152119 0.551955 1.702258 0.845910 -0.068722 0.528879 1
-0.156163 0.555586 1.707842 0.807558 0.073193 0.585230 1
-0.417164 -0.574800 1.967333 0.710827 0.055554 0.701169 1
-0.161671 0.569289 1.712603 0.804152 -0.032501 0.593535 1
-0.168812 0.569090 1.723040 0.831369 -0.120126 0.542582 1
-0.407307 -0.577852 1.957659 0.768415 0.070541 0.636053 1
-0.171711 0.581542 1.730700 0.800165 -0.125700 0.586460 1
-0.175389 0.593199 1.736804 0.755986 -0.093247 0.647913 1
-0.171620 0.589430 1.731707 0.786334 -0.076091 0.613098 1
-0.399647 -0.602632 1.949084 0.828980 0.063198 0.555697 1
-0.194096 0.595732 1.760211 0.823115 -0.033271 0.566899 1
-0.201695 0.602950 1.771960 0.820077 0.011376 0.572140 1
-0.205815 0.606551 1.776965 0.760505 0.021360 0.648980 1
-0.251362 0.654479 1.840960 0.748194 -0.026321 0.662958 1
-0.140187 0.549666 1.683459 0.786371 -0.056491 0.615166 1
-0.141041 0.558318 1.684985 0.820184 0.051818 0.569749 1
-0.157704 0.574446 1.707293 0.819112 0.051238 0.571341 1
-0.186573 0.596587 1.749865 0.735337 -0.081148 0.672826 1
-0.187230 0.604827 1.751147 0.775155 -0.020045 0.631453 1
-0.206684 0.614913 1.777209 0.803746 0.046614 0.593143 1
-0.210865 0.619734 1.781817 0.762868 -0.048754 0.644713 1
-0.107457 0.523512 1.637011 0.802083 -0.024828 0.596696 1
-0.119053 0.543517 1.653796 0.807029 -0.031754 0.589657 1
-0.133335 0.550490 1.674792 0.802583 0.017639 0.596280 1
-0.149937 0.574080 1.696215 0.811059 -0.034884 0.583923 1
-0.168293 0.586119 1.726519 0.845545 -0.080117 0.527859 1
-0.180348 0.605712 1.744341 0.731327 -0.035788 0.681087 1
-0.195347 0.612288 1.761279 0.807860 0.006918 0.589334 1
-0.203068 0.620589 1.772601 0.794938 -0.107418 0.597105 1
-0.491902 -0.505891 2.065997 0.802022 -0.050976 0.595115 1
-0.484867 -0.505037 2.056323 0.809196 -0.038764 0.586259 1
-0.469868 -0.518022 2.042162 0.734910 0.196260 0.649146 1
-0.465702 -0.521547 2.037920 0.783968 0.139512 0.604922 1
-0.462559 -0.533388 2.034380 0.784373 -0.100152 0.612150 1
-0.452122 -0.536256 2.019671 0.810774 -0.148680 0.566163 1
-0.448582 -0.540498 2.013079 0.830755 -0.130293 0.541174 1
-0.449116 -0.550935 2.012042 0.821704 -0.069961 0.565604 1
-0.432652 -0.568132 1.983965 0.828241 -0.100425 0.551300 1
-0.429524 -0.572664 1.978961 0.719374 0.022685 0.694252 1
-0.111653 0.535811 1.643572 0.796357 -0.060193 0.601825 1
-0.141682 0.566558 1.684863 0.811265 0.004885 0.584658 1
-0.154026 0.579375 1.702288 0.803913 -0.087998 0.588201 1
-0.157566 0.583266 1.708392 0.843446 -0.064495 0.533329 1
-0.168400 0.593871 1.727374 0.850767 -0.027332 0.524832 1
-0.173085 0.606383 1.735186 0.813621 -0.036438 0.580252 1
-0.176289 0.601699 1.739153 0.784176 -0.055983 0.618008 1
-0.184636 0.617690 1.747942 0.757070 0.000278 0.653333 1
-0.188481 0.623168 1.752947 0.798381 -0.110650 0.591899 1
-0.153889 0.588103 1.703661 0.797994 -0.083113 0.596907 1
-0.157872 0.599608 1.709979 0.849559 -0.013574 0.527320 1
-0.176823 0.610503 1.740191 0.767934 0.029359 0.639856 1
-0.484425 -0.516816 2.055499 0.744728 0.111479 0.657992 1
-0.477543 -0.521974 2.051562 0.685841 0.175795 0.706199 1
-0.469593 -0.526506 2.043993 0.761618 0.049676 0.646119 1
-0.456135 -0.539903 2.023943 0.769608 -0.167489 0.616158 1
-0.453282 -0.547395 2.017962 0.812029 -0.117349 0.571697 1
-0.445973 -0.561677 2.005877 0.819437 -0.104839 0.563500 1
-0.419987 -0.590547 1.971606 0.697801 0.082278 0.711551 1
-0.406544 -0.594346 1.958331 0.752092 0.042092 0.657713 1
-0.153904 0.596327 1.704485 0.784107 0.013846 0.620471 1
-0.501957 -0.503023 2.079638 0.789301 -0.070497 0.609946 1
-0.492451 -0.514100 2.065508 0.767784 -0.020710 0.640374 1
-0.482487 -0.524492 2.055956 0.723163 0.136468 0.677061 1
-0.478276 -0.527376 2.052447 0.702673 -0.048748 0.709841 1
-0.473729 -0.530580 2.048357 0.743964 -0.166716 0.647089 1
-0.464787 -0.544221 2.032580 0.773635 -0.134775 0.619132 1
-0.456349 -0.551744 2.022173 0.791582 -0.084379 0.605210 1
-0.433384 -0.577699 1.983935 0.797941 0.048970 0.600743 1
-0.416661 -0.600511 1.969805 0.727302 0.056258 0.684008 1
-0.402394 -0.606935 1.953234 0.795924 -0.010084 0.605312 1
-0.503193 -0.519502 2.078570 0.810713 -0.077175 0.580334 1
-0.500508 -0.524797 2.073687 0.774350 -0.033013 0.631896 1
-0.485005 -0.530488 2.059618 0.683392 0.009515 0.729990 1
-0.482319 -0.533174 2.056780 0.740438 -0.039181 0.670981 1
-0.471272 -0.544725 2.042010 0.790819 -0.028434 0.611389 1
-0.463246 -0.552385 2.031115 0.811010 -0.037048 0.583858 1
-0.450062 -0.575258 2.009051 0.819319 -0.023650 0.572850 1
-0.443242 -0.574586 1.999468 0.829770 -0.086178 0.551413 1
-0.439946 -0.578431 1.994189 0.836284 0.036137 0.547104 1
-0.445637 -0.590547 2.005236 0.834110 0.072804 0.546772 1
-0.432743 -0.590532 1.984210 0.793194 0.069658 0.604972 1
-0.431874 -0.597551 1.984240 0.781117 0.107173 0.615118 1
-0.412922 -0.603624 1.966326 0.764052 0.035130 0.644198 1
-0.496968 -0.529100 2.068743 0.625259 -0.095616 0.774538 1
-0.487843 -0.534929 2.062212 0.622810 -0.051869 0.780652 1
-0.477833 -0.544984 2.050860 0.776993 0.004486 0.629493 1
-0.476689 -0.553438 2.049975 0.752329 0.023825 0.658357 1
-0.469853 -0.552934 2.040942 0.817369 0.001602 0.576112 1
-0.466557 -0.556383 2.035174 0.820621 -0.071374 0.566998 1
-0.430119 -0.606386 1.984637 0.742603 0.107413 0.661062 1
-0.480961 -0.549455 2.054003 0.691851 -0.069544 0.718683 1
-0.473256 -0.557496 2.045306 0.813284 -0.025886 0.581291 1
-0.470219 -0.561311 2.040118 0.843132 0.004169 0.537691 1
-0.466847 -0.565797 2.035021 0.844623 -0.026084 0.534726 1
-0.460514 -0.579652 2.024523 0.819946 -0.034793 0.571382 1
-0.454747 -0.589067 2.016619 0.792943 -0.034924 0.608294 1
-0.420658 -0.612245 1.974383 0.769897 -0.002542 0.638163 1
-0.416722 -0.615617 1.969409 0.729347 -0.101285 0.676605 1
-0.480336 -0.558473 2.053942 0.713139 0.100956 0.693715 1
-0.476597 -0.562440 2.050433 0.798067 0.040931 0.601177 1
-0.473195 -0.566255 2.045733 0.792099 -0.108485 0.600675 1
-0.466908 -0.573015 2.035601 0.859269 -0.075051 0.505989 1
-0.468220 -0.580491 2.035174 0.818696 -0.119250 0.561708 1
-0.451573 -0.591722 2.013659 0.744729 0.122591 0.656010 1
-0.448429 -0.594591 2.009966 0.809384 0.056753 0.584532 1
-0.448323 -0.602556 2.010211 0.793752 -0.037940 0.607057 1
-0.440632 -0.610811 1.999102 0.807440 0.039852 0.588602 1
-0.433247 -0.610704 1.990069 0.783085 0.110365 0.612044 1
-0.429371 -0.613771 1.985217 0.780473 0.078369 0.620259 1
-0.462239 -0.589097 2.023486 0.759722 -0.096199 0.643093 1
-0.454197 -0.595415 2.017046 0.661927 0.018105 0.749350 1
-0.451725 -0.598329 2.014422 0.711197 -0.061341 0.700311 1
-0.429371 -0.621553 1.985919 0.807680 -0.041437 0.588164 1
-0.475651 -0.583101 2.044116 0.769250 -0.143677 0.622584 1
0.295314 -0.430803 1.124529 0.662769 0.214362 0.717486 1
0.289928 -0.411439 1.123980 0.732989 0.193519 0.652133 1
0.295604 -0.419542 1.117175 0.743110 0.152410 0.651582 1
-0.011723 -0.424760 1.202319 -0.583745 0.811750 0.017418 2
-0.015355 -0.429612 1.210375 -0.634211 0.758187 0.151423 2
-0.018681 -0.428819 1.193499 -0.264181 0.963988 0.030586 2
-0.000386 -0.522859 1.459826 0.801870 0.066829 0.593749 2
0.005474 -0.530015 1.450030 0.680465 -0.069057 0.729519 2
0.002971 -0.521974 1.454516 0.474603 0.241604 0.846392 2
0.066356 -0.201722 -0.142286 -0.185408 0.955344 0.230093 3
0.074672 -0.208970 -0.114240 -0.124250 0.956310 0.264636 3
0.080364 -0.203569 -0.134565 -0.097980 0.964619 0.244767 3
0.254375 -0.040330 1.138690 0.434619 -0.828267 0.353667 2
0.252102 -0.048143 1.138690 0.195569 -0.151030 0.968991 2
0.246944 -0.043687 1.139666 -0.134709 -0.408490 0.902768 2
0.187633 0.263472 1.230151 0.489016 0.116161 0.864506 1
0.181194 0.259963 1.232897 0.480568 -0.118646 0.868895 2
0.184917 0.257918 1.234210 0.585883 -0.049063 0.808909 2
0.149654 0.329116 1.286822 0.686281 0.001016 0.727335 1
0.146801 0.323714 1.288439 0.711597 -0.162162 0.683618 1
0.166576 0.319197 1.265093 0.755496 -0.136643 0.640745 1
0.369045 -0.038728 1.010516 -0.423380 -0.665556 0.614642 2
0.369106 -0.040132 1.014849 0.340391 0.278673 0.898040 2
0.368648 -0.035020 1.015185 0.375052 -0.125571 0.918459 2
0.385921 -0.207124 1.001330 -0.903388 0.276527 0.327756 2
0.383525 -0.214296 1.008990 0.735843 0.254277 0.627597 2
0.382015 -0.199235 1.005114 0.325008 -0.563441 0.759542 2
0.166332 0.396773 1.259905 0.850022 0.010305 0.526646 1
0.156841 0.394103 1.276171 0.849021 -0.126772 0.512924 1
0.161831 0.381392 1.263842 0.836018 -0.068091 0.544461 1
-0.236195 -0.687654 1.755755 0.717700 -0.084343 0.691226 1
-0.227085 -0.687120 1.745562 0.759626 -0.075427 0.645971 1
-0.234669 -0.681932 1.754931 0.735296 -0.016496 0.677546 1
0.227687 0.433592 1.196124 0.722597 -0.229157 0.652181 1
0.216411 0.433959 1.206927 0.647529 -0.353026 0.675336 1
0.233989 0.426726 1.185809 0.704248 -0.116240 0.700374 1
0.100200 -0.293550 0.446795 -0.432663 0.901272 0.022605 2
0.110592 -0.286607 0.450549 -0.559759 0.828109 0.030101 2
0.109813 -0.287752 0.426867 -0.529498 0.848303 -0.003653 2
0.414272 -0.106721 0.958849 0.780340 -0.212621 0.588100 2
0.415752 -0.100068 0.958880 0.776311 0.093879 0.623320 1
0.400936 -0.095689 0.982226 0.833236 0.002243 0.552913 1
0.152126 -0.420900 1.293841 0.773370 0.085677 0.628139 2
0.159084 -0.419771 1.283312 0.846276 0.065561 0.528695 1
0.150829 -0.412477 1.294085 0.776954 0.098223 0.621847 2
-0.040684 -0.427049 1.202868 0.077789 0.991531 0.103993 2
-0.035618 -0.431413 1.237719 0.135970 0.984459 0.111144 2
-0.022160 -0.421602 1.153277 0.029773 0.982776 0.182389 2
-0.030400 -0.429857 1.216876 -0.001559 0.997548 0.069965 2
-0.029805 -0.430452 1.225024 -0.072830 0.995762 0.056159 2
0.210430 -0.418275 1.218646 0.675728 0.114610 0.728187 1
0.218166 -0.417146 1.208025 0.711185 0.130076 0.690866 1
0.204494 -0.411989 1.225787 0.750491 -0.048576 0.659093 2
0.398143 -0.050721 0.979235 0.735083 -0.189733 0.650887 2
0.386577 -0.047670 0.995135 0.791093 -0.119007 0.600008 1
0.387874 -0.054551 0.991137 0.801241 -0.128699 0.584336 1
0.213543 0.251372 1.201525 0.833902 0.046844 0.549920 1
0.215969 0.247222 1.196917 0.822200 -0.064474 0.565535 1
0.228542 0.243270 1.177691 0.827936 -0.044124 0.559084 1
0.052211 -0.338258 0.681109 -0.231470 0.954684 0.187086 2
0.062816 -0.344652 0.724535 -0.161245 0.972347 0.168941 2
0.069088 -0.335969 0.675860 -0.119905 0.981240 0.150967 2
0.034526 -0.274278 0.204730 -0.250238 0.958494 0.136641 2
0.030223 -0.281694 0.234179 -0.397031 0.899754 0.181134 2
0.033840 -0.282777 0.249194 -0.010035 0.983309 0.181667 2
0.292369 -0.122545 1.112078 0.751315 0.066487 0.656586 2
0.280422 -0.126008 1.128405 0.768131 0.091516 0.633718 2
0.295421 -0.125886 1.108630 0.786012 0.016176 0.618000 1
-0.032689 -0.593477 1.509905 0.784194 -0.056225 0.617963 2
-0.041279 -0.584367 1.520953 0.667884 0.281125 0.689129 2
-0.045521 -0.589311 1.526904 0.766453 0.007366 0.642258 2
0.340099 -0.008531 1.052050 0.711352 -0.178356 0.679829 2
0.331539 -0.009599 1.061358 0.740481 -0.079389 0.667372 2
0.347789 -0.014314 1.040362 0.759092 -0.271948 0.591459 2
0.154430 0.390425 1.278521 0.823337 -0.132063 0.551974 1
-0.020680 -0.440904 1.375659 -0.047225 0.997529 0.052024 2
-0.013844 -0.439531 1.358599 -0.090671 0.990362 0.104695 2
-0.018498 -0.440248 1.349139 -0.231276 0.972146 0.037994 2
-0.224110 0.664595 1.805529 0.790442 -0.094457 0.605211 1
-0.221196 0.645873 1.798785 0.818402 -0.055979 0.571913 1
-0.224018 0.675475 1.806963 0.726470 -0.037160 0.686192 1
-0.231938 0.679106 1.814745 0.700918 0.043250 0.711930 1
-0.226658 0.673201 1.809557 0.736658 -0.020152 0.675965 1
-0.236119 0.680495 1.818255 0.740314 -0.044166 0.670808 1
-0.233754 0.683760 1.816302 0.773175 -0.085176 0.628447 1
-0.231083 0.685393 1.813006 0.718546 -0.020976 0.695163 1
-0.237919 0.692351 1.823687 0.771547 -0.283207 0.569657 1
-0.236012 0.693358 1.821734 0.749102 -0.307808 0.586601 1
-0.218174 0.673995 1.800433 0.772625 -0.109863 0.625284 1
-0.215046 0.677916 1.797472 0.759831 -0.015470 0.649937 1
-0.234013 0.699523 1.822894 0.767151 -0.263106 0.585025 1
-0.240254 0.700713 1.832079 0.818288 -0.207473 0.536060 1
-0.242588 0.711913 1.837786 0.807020 -0.097191 0.582471 1
-0.246052 0.719664 1.844470 0.829970 -0.027187 0.557144 1
-0.243382 0.709838 1.839404 0.857658 -0.064534 0.510155 1
-0.244481 0.750289 1.847765 0.808641 -0.115888 0.576776 1
-0.242283 0.727446 1.839495 0.813872 -0.090637 0.573931 1
-0.238514 0.739455 1.836382 0.837006 -0.094327 0.539002 1
-0.234761 0.686858 1.815966 0.754350 -0.213481 0.620791 1
-0.501835 -0.470399 2.079455 0.778355 -0.205810 0.593132 1
-0.525685 -0.492570 2.106677 0.820246 -0.012506 0.571874 1
-0.527104 -0.482667 2.110461 0.821824 -0.073749 0.564949 1
-0.529683 -0.488298 2.113665 0.824144 -0.088738 0.559385 1
-0.521092 -0.487016 2.100634 0.789056 -0.030056 0.613586 1
-0.517674 -0.481752 2.096850 0.802254 -0.083428 0.591124 1
-0.514149 -0.471330 2.094378 0.784308 -0.119774 0.608699 1
-0.507100 -0.464280 2.088397 0.775670 -0.105088 0.622329 1
-0.543522 -0.482972 2.134509 0.808485 -0.075241 0.583687 1
-0.542118 -0.492296 2.131121 0.783140 -0.093632 0.614756 1
-0.546131 -0.487123 2.137103 0.694458 -0.134284 0.706892 1
-0.149098 0.734633 1.705981 0.836239 -0.107447 0.537736 1
-0.145253 0.752364 1.707507 0.767763 -0.126224 0.628178 1
-0.153309 0.743346 1.715807 0.815856 -0.181088 0.549168 1
-0.526280 -0.467439 2.110461 0.820333 -0.022924 0.571427 1
-0.576802 -0.509797 2.180132 0.832428 -0.080233 0.548293 1
-0.581089 -0.508226 2.186724 0.800876 -0.063224 0.595483 1
-0.581822 -0.521074 2.184741 0.797224 -0.210438 0.565817 1
-0.575047 -0.486772 2.174517 0.873598 0.123616 0.470686 1
-0.573185 -0.504503 2.174731 0.878699 0.067248 0.472616 1
-0.564778 -0.495668 2.156420 0.877411 0.105868 0.467912 1
-0.560109 -0.499681 2.149279 0.813572 0.051540 0.579175 1
-0.559193 -0.504167 2.148638 0.845001 0.092860 0.526640 1
-0.537297 -0.472795 2.127032 0.817045 -0.030753 0.575753 1
-0.586857 -0.518159 2.192858 0.777758 -0.134285 0.614052 1
-0.588917 -0.509523 2.196215 0.711103 0.015567 0.702915 1
-0.578129 -0.503374 2.182818 0.808441 0.075370 0.583731 1
-0.606144 -0.512620 2.208514 0.755861 0.092797 0.648122 1
-0.611103 -0.521043 2.218401 0.752345 0.225808 0.618860 1
-0.603520 -0.519044 2.208453 0.697974 0.219975 0.681501 1
-0.617710 -0.502962 2.225359 0.852201 0.047114 0.521089 1
-0.618824 -0.517244 2.228747 0.839177 0.062684 0.540233 1
-0.591801 -0.514314 2.198931 0.612689 0.051630 0.788636 1
-0.595478 -0.521547 2.202013 0.757682 -0.143491 0.636655 1
-0.217167 0.651213 1.793658 0.785501 -0.081403 0.613484 1
-0.210347 0.659484 1.786700 0.772651 -0.083850 0.629269 1
-0.239735 0.733275 1.836932 0.816177 -0.056975 0.574986 1
-0.140522 0.778578 1.699511 0.778004 -0.083789 0.622647 1
-0.134190 0.777190 1.694933 0.690637 0.262460 0.673896 1
-0.129002 0.774748 1.689196 0.780305 -0.010500 0.625311 1
-0.136845 0.773055 1.697894 0.616790 0.084345 0.782595 1
-0.140126 0.765807 1.699603 0.494202 0.170092 0.852545 1
-0.138234 0.761153 1.700823 0.767557 -0.030764 0.640242 1
-0.168034 0.758284 1.739703 0.806109 -0.062604 0.588446 1
-0.175938 0.756896 1.750689 0.833065 0.006651 0.553135 1
-0.161946 0.740737 1.728472 0.835261 -0.083633 0.543456 1
-0.139744 0.746932 1.697985 0.773541 -0.237494 0.587563 1
-0.147953 0.754363 1.709887 0.826725 -0.049529 0.560421 1
-0.159733 0.770491 1.730364 0.813234 -0.091154 0.574753 1
-0.158528 0.746474 1.723895 0.816314 -0.092000 0.570235 1
-0.179051 0.751372 1.755724 0.831083 -0.074275 0.551166 1
-0.176518 0.721617 1.746294 0.820496 -0.110677 0.560836 1
-0.174885 0.725554 1.744433 0.814312 -0.106555 0.570563 1
-0.192219 0.718764 1.769213 0.835538 -0.131519 0.533459 1
-0.185597 0.739607 1.763751 0.830322 -0.084998 0.550764 1
-0.208485 0.682494 1.789568 0.752230 0.063381 0.655845 1
-0.203740 0.682799 1.783068 0.850090 -0.045090 0.524703 1
-0.205464 0.689238 1.785388 0.801209 0.092050 0.591262 1
-0.211110 0.684691 1.791338 0.700250 0.158794 0.696013 1
-0.210743 0.692397 1.789599 0.779850 -0.067511 0.622315 1
-0.207707 0.697768 1.785967 0.783374 -0.215748 0.582905 1
-0.211644 0.760420 1.795458 0.874344 -0.096568 0.475602 1
-0.212193 0.770415 1.802722 0.855901 -0.196520 0.478345 1
-0.218312 0.756102 1.806536 0.842303 -0.099294 0.529779 1
-0.214390 0.768355 1.800951 0.885840 -0.240875 0.396569 1
-0.219715 0.762007 1.810076 0.811710 -0.157117 0.562531 1
-0.227208 0.753981 1.819323 0.840498 -0.084576 0.535172 1
-0.215794 0.687056 1.796069 0.758408 0.043139 0.650352 1
-0.189045 0.754637 1.770983 0.820362 -0.067267 0.567874 1
-0.198994 0.754912 1.785265 0.782816 0.014009 0.622096 1
-0.205784 0.754531 1.794299 0.768677 0.059901 0.636826 1
-0.204640 0.761626 1.790972 0.708126 0.084454 0.701017 1
-0.157002 0.773345 1.726641 0.853463 -0.047617 0.518973 1
-0.148747 0.763167 1.711169 0.854010 -0.016723 0.519988 1
-0.142353 0.773696 1.701312 0.829994 -0.043245 0.556093 1
-0.167271 0.768660 1.739550 0.761738 -0.027322 0.647309 1
-0.210499 0.773070 1.800585 0.782019 -0.230268 0.579157 1
-0.205845 0.766982 1.792712 0.778163 -0.017227 0.627826 1
-0.207966 0.764052 1.794146 0.412447 -0.071229 0.908192 1
-0.187580 0.759413 1.768664 0.840079 0.037438 0.541171 1
-0.195713 0.759184 1.780901 0.805146 0.047070 0.591206 1
-0.124394 0.783293 1.683733 0.727546 -0.171594 0.664253 1
-0.121128 0.775664 1.679186 0.818160 -0.073040 0.570332 1
-0.035847 0.668425 1.548876 0.831591 -0.014429 0.555201 1
-0.032246 0.652541 1.543658 0.840042 -0.055251 0.539701 1
-0.025578 0.662337 1.532641 0.827748 -0.062935 0.557560 1
-0.038578 0.665022 1.553942 0.861214 0.043111 0.506410 1
-0.024220 0.652434 1.530566 0.818692 -0.038455 0.572944 1
-0.036137 0.649047 1.550066 0.832433 -0.125218 0.539792 1
-0.039555 0.633315 1.550005 0.816730 -0.114382 0.565570 1
-0.135823 0.752471 1.696002 0.778841 -0.186283 0.598921 1
0.321010 -0.016099 1.072283 0.764353 -0.135289 0.630446 2
-0.026402 0.612242 1.533709 0.782923 0.082158 0.616669 1
-0.025441 0.609877 1.532183 0.810723 0.038705 0.584149 1
-0.015690 0.608107 1.520037 0.794188 -0.001966 0.607670 1
-0.041218 0.653350 1.558154 0.832637 -0.101222 0.544490 1
0.151180 -0.330598 1.006365 -0.672258 0.737706 0.062126 2
0.158443 -0.323518 1.009509 -0.806582 0.591092 0.005873 2
0.157070 -0.324113 0.983630 -0.658236 0.752140 0.031798 2
0.177639 0.363143 1.248034 0.776573 0.269047 0.569691 1
0.183300 0.363310 1.240984 0.793575 0.290393 0.534706 1
0.172145 0.369460 1.250140 0.821796 0.067853 0.565727 1
0.173290 0.366591 1.252978 0.783251 0.277023 0.556575 1
0.179546 0.356200 1.246325 0.783143 0.151090 0.603208 1
0.182399 0.363402 1.237109 0.778495 0.418506 0.467759 1
0.182964 0.347212 1.242632 0.810301 0.079030 0.580660 1
0.174129 0.355605 1.254076 0.836439 0.129572 0.532523 1
0.200771 0.339904 1.213030 0.685776 0.191474 0.702174 1
0.203228 0.346633 1.203722 0.724222 0.174937 0.667008 1
0.199535 0.341262 1.214983 0.718673 0.459530 0.521864 1
0.190715 0.352172 1.228533 0.902163 0.039534 0.429579 1
0.193142 0.336760 1.226305 0.890343 0.105527 0.442892 1
0.197384 0.343260 1.214739 0.878450 0.144444 0.455480 1
0.188167 0.359587 1.234362 0.857648 0.286115 0.427293 1
0.210201 0.355117 1.200854 -0.126786 0.244138 0.961417 1
0.213832 0.352767 1.204516 0.131701 0.179253 0.974948 1
0.216610 0.358016 1.202929 0.227774 0.270761 0.935312 1
0.211284 0.361144 1.202013 0.659263 -0.320781 0.680053 1
0.218273 0.364958 1.197619 0.737132 0.119761 0.665052 1
0.190563 0.346587 1.231097 0.879686 0.086683 0.467589 1
0.188717 0.341277 1.234972 0.848226 0.045247 0.527698 1
0.194042 0.363967 1.218920 0.841654 0.151944 0.518200 1
0.167446 0.340697 1.264636 0.801217 0.080329 0.592958 1
0.172039 0.345793 1.258044 0.817341 0.016000 0.575932 1
0.219219 0.361220 1.200823 0.565056 0.411552 0.715078 1
0.224514 0.359465 1.195849 0.686543 0.277037 0.672242 1
0.158184 0.312102 1.273272 0.701840 -0.222655 0.676642 1
0.163570 0.315550 1.267809 0.748273 -0.119766 0.652490 1
0.144786 0.360900 1.288775 0.755963 -0.077147 0.650052 1
0.156078 0.349944 1.275164 0.725360 0.015438 0.688196 1
0.158535 0.357909 1.275469 0.697555 -0.081418 0.711890 1
0.158001 0.337950 1.276080 0.790531 0.067753 0.608662 1
0.153667 0.339385 1.282305 0.656643 0.027402 0.753703 1
0.161693 0.300475 1.265704 0.663013 -0.144831 0.734465 1
0.151180 0.330184 1.282092 0.505659 0.012664 0.862640 1
0.174190 0.319945 1.255328 0.785819 -0.082450 0.612936 1
0.182644 0.320540 1.244921 0.813382 0.029346 0.580989 1
0.181011 0.328154 1.247271 0.819696 0.027351 0.572145 1
0.141887 0.343108 1.291216 0.767953 -0.022926 0.640096 1
0.147121 0.364730 1.287158 0.698664 -0.037577 0.714462 1
0.150386 0.368437 1.284167 0.753873 0.035488 0.656061 1
0.161327 0.360366 1.272082 0.784836 0.077454 0.614845 1
0.161571 0.371672 1.269915 0.809722 0.144026 0.568864 1
0.135189 0.383910 1.307177 0.870563 -0.102949 0.481167 1
0.136394 0.373366 1.301409 0.837163 -0.099086 0.537903 1
0.140789 0.392333 1.298541 0.846399 -0.053331 0.529872 1
0.167919 0.332869 1.265734 0.782462 -0.007718 0.622650 1
0.144573 0.374465 1.289874 0.786159 -0.069047 0.614155 1
0.134533 0.359114 1.301623 0.821962 -0.044853 0.567774 1
0.163204 0.342299 1.270037 0.751385 -0.017720 0.659627 1
0.165233 0.306868 1.263598 0.684764 -0.137156 0.715742 1
0.130077 0.362029 1.310107 0.866928 -0.088454 0.490521 1
0.148006 0.380004 1.286364 0.818908 0.031448 0.573063 1
0.142665 0.396117 1.295702 0.815731 -0.091398 0.571164 1
0.148861 0.394805 1.287768 0.781652 -0.180509 0.597024 1
0.144252 0.398436 1.294268 0.814399 -0.012884 0.580163 1
0.145519 0.407622 1.291735 0.812415 0.070896 0.578753 1
0.159618 0.397231 1.272112 0.869828 0.220193 0.441491 1
0.159984 0.422621 1.268755 0.797033 0.060529 0.600895 1
0.146633 0.429259 1.286150 0.816476 0.005506 0.577354 1
0.153530 0.402861 1.282092 0.840871 0.089737 0.533745 1
0.151439 0.398177 1.284838 0.804582 -0.036155 0.592740 1
0.137279 0.424300 1.301013 0.855044 0.004138 0.518538 1
0.140483 0.412764 1.296587 0.833890 0.082096 0.545791 1
0.152050 0.443343 1.280718 0.797643 -0.074192 0.598549 1
0.162349 0.443389 1.266436 0.815806 -0.084028 0.572188 1
0.156307 0.327559 1.278674 0.773882 0.018450 0.633062 1
0.165859 0.381163 1.260424 0.773874 -0.026457 0.632786 1
0.166805 0.378493 1.258563 0.839063 0.208520 0.502486 1
0.169841 0.382872 1.254107 0.805828 -0.025493 0.591601 1
0.192852 0.324370 1.228899 0.835386 0.061164 0.546251 1
0.166790 0.425368 1.258227 0.807289 0.148284 0.571224 1
0.166973 0.341124 1.264086 0.806167 -0.084238 0.585661 1
0.163540 0.336470 1.268542 0.755265 0.020010 0.655114 1
0.212459 0.348616 1.205218 0.170626 0.185662 0.967686 1
0.168377 0.397490 1.256304 0.776624 -0.104145 0.621296 1
0.235607 0.434294 1.187243 0.767545 -0.107184 0.631969 1
0.236736 0.421187 1.183794 0.743731 -0.063660 0.665441 1
0.234432 0.365462 1.179064 0.673912 0.365522 0.642056 1
0.236736 0.355635 1.181597 0.780523 0.138874 0.609506 1
0.239803 0.369353 1.175066 0.596810 0.085676 0.797795 1
0.221202 0.403868 1.197070 0.799020 -0.150348 0.582205 1
0.231990 0.393096 1.180163 0.696767 -0.110161 0.708788 1
0.236522 0.401473 1.177996 0.720490 -0.191347 0.666544 1
0.225368 0.360945 1.194262 0.695350 0.440127 0.568134 1
0.221157 0.451796 1.205676 0.493884 0.427938 0.756933 1
0.221233 0.454665 1.205492 0.653241 0.109514 0.749189 1
0.214962 0.457015 1.206408 0.547831 0.147629 0.823461 1
0.217891 0.456908 1.207263 0.179748 0.098372 0.978782 1
0.219997 0.459960 1.205187 0.392903 0.139675 0.908910 1
0.212398 0.463744 1.208117 0.738041 -0.052836 0.672684 1
0.219753 0.481963 1.202227 0.759678 -0.017800 0.650056 1
0.219234 0.474822 1.202746 0.722902 0.034701 0.690078 1
0.223812 0.479338 1.197924 0.703123 0.078955 0.706672 1
0.219478 0.494536 1.202197 0.771927 -0.034615 0.634768 1
0.216793 0.489836 1.205370 0.762574 0.005200 0.646880 1
0.228313 0.484374 1.192309 0.748008 0.017246 0.663465 1
0.220668 0.496230 1.201647 0.763991 -0.172129 0.621843 1
0.207470 0.459593 1.214404 0.809055 -0.030016 0.586966 1
0.197567 0.519759 1.239550 0.790836 -0.098625 0.604030 1
0.180858 0.504134 1.259112 0.788441 -0.172155 0.590528 1
0.199794 0.508986 1.233538 0.797815 -0.196116 0.570113 1
0.181102 0.506392 1.258837 0.579660 0.006702 0.814831 1
0.184322 0.510695 1.255450 0.742346 0.018718 0.669755 1
0.212719 0.497191 1.211138 0.760673 -0.237852 0.603990 1
0.218608 0.506987 1.209429 0.736581 -0.262202 0.623457 1
0.205639 0.509123 1.225695 0.760217 -0.228204 0.608271 1
0.175350 0.496474 1.261370 0.648124 -0.176290 0.740849 1
0.179577 0.497985 1.258257 0.786449 -0.194865 0.586111 1
0.205639 0.473128 1.218890 0.793054 -0.026976 0.608553 1
0.228130 0.441619 1.196551 0.753580 -0.133817 0.643591 1
0.223247 0.448363 1.204394 0.758672 -0.061340 0.648578 1
0.171657 0.491957 1.264391 0.763459 -0.040830 0.644565 1
0.180004 0.491439 1.254931 0.778369 -0.140803 0.611814 1
0.164898 0.484496 1.272723 0.789763 -0.118260 0.601905 1
0.170391 0.483977 1.265246 0.776801 -0.144017 0.613057 1
0.159114 0.444762 1.272509 0.804636 -0.149298 0.574692 1
0.166408 0.465392 1.265734 0.806390 -0.136254 0.575474 1
0.171581 0.464766 1.257952 0.747948 -0.171089 0.641329 1
-0.237233 0.773146 1.839404 0.820999 -0.148233 0.551350 1
0.165294 0.326537 1.267718 0.740100 -0.062833 0.669556 1
0.161647 0.457762 1.270831 0.826175 -0.150331 0.542987 1
0.165905 0.453292 1.262866 0.797218 -0.048140 0.601768 1
0.169719 0.458266 1.258685 0.774265 -0.125276 0.620339 1
0.226848 0.489318 1.194140 0.712746 0.029361 0.700807 1
0.215129 0.447112 1.213885 0.648290 0.026404 0.760936 1
0.188228 0.301451 1.238757 0.807862 0.059128 0.586398 1
0.027706 0.570647 1.454455 0.789854 -0.112658 0.602859 1
0.029232 0.561202 1.451708 0.789331 0.097559 0.606167 1
0.038433 0.560912 1.439654 0.816951 0.015009 0.576511 1
0.034786 0.542754 1.449725 0.783795 0.133683 0.606461 1
0.043392 0.548216 1.435229 0.856999 0.147696 0.493698 1
0.047054 0.558821 1.425158 0.832355 0.010099 0.554151 1
-0.071415 0.554106 1.589495 0.794976 -0.099650 0.598401 1
-0.073429 0.558837 1.593371 0.787852 -0.066519 0.612262 1
-0.075276 0.549941 1.594256 0.813614 -0.138615 0.564640 1
-0.065586 0.538634 1.576617 0.775285 -0.069731 0.627750 1
-0.078633 0.552168 1.598956 0.822199 -0.047809 0.567188 1
0.044994 0.571898 1.432757 0.810901 -0.182968 0.555843 1
-0.063450 0.544722 1.576067 0.754590 -0.161261 0.636074 1
-0.054249 0.545973 1.567645 0.756939 0.031038 0.652747 1
-0.060887 0.553694 1.575549 0.766509 -0.084703 0.636623 1
-0.062947 0.557433 1.579211 0.795576 -0.141301 0.589146 1
-0.045277 0.621291 1.556719 0.782055 -0.016043 0.623003 1
-0.035954 0.620513 1.544299 0.811295 0.024694 0.584115 1
-0.034230 0.614821 1.544573 0.818527 0.168993 0.549049 1
-0.031346 0.617064 1.537982 0.814708 0.256880 0.519869 1
-0.042042 0.640547 1.555529 0.784366 -0.217315 0.580985 1
-0.045002 0.634246 1.557482 0.811253 -0.117879 0.572689 1
-0.039311 0.645079 1.553851 0.797102 -0.184214 0.575060 1
-0.060170 0.594267 1.574297 0.858333 -0.051071 0.510544 1
-0.058049 0.582244 1.569994 0.843424 -0.032958 0.536237 1
-0.060612 0.609023 1.576983 0.841283 -0.062411 0.536980 1
-0.052082 0.586135 1.560503 0.825258 -0.030734 0.563919 1
-0.045689 0.589186 1.551440 0.784260 -0.014913 0.620253 1
-0.041737 0.595702 1.548113 0.776893 -0.127694 0.616548 1
-0.051548 0.600447 1.562182 0.819645 -0.088076 0.566061 1
-0.041020 0.557250 1.548266 0.596303 0.043298 0.801591 1
-0.038365 0.548415 1.546984 0.715837 0.030392 0.697606 1
-0.040974 0.564147 1.548510 0.652981 -0.063491 0.754708 1
-0.049061 0.574095 1.557086 0.753191 0.013952 0.657654 1
-0.045567 0.581267 1.552508 0.695676 0.053995 0.716324 1
-0.037159 0.573622 1.546954 0.657376 0.033612 0.752812 1
-0.032536 0.563811 1.541125 0.721462 -0.041474 0.691211 1
-0.031529 0.555770 1.539294 0.805436 -0.086582 0.586324 1
-0.034428 0.601088 1.540667 0.539880 -0.352791 0.764244 1
-0.031056 0.594191 1.534686 0.719987 0.140784 0.679557 1
-0.021580 0.591628 1.527148 0.808504 0.002778 0.588485 1
-0.024037 0.601744 1.530779 0.819094 0.008146 0.573601 1
-0.031315 0.601912 1.541674 0.797425 -0.042399 0.601927 1
-0.042073 0.587294 1.549304 0.647400 0.216974 0.730613 1
-0.031514 0.583510 1.541613 0.706880 0.165094 0.687797 1
-0.029301 0.614730 1.536730 0.768582 0.286816 0.571855 1
-0.051640 0.610900 1.563647 0.801094 -0.093198 0.591239 1
-0.036564 0.612074 1.548235 0.663692 0.037745 0.747053 1
-0.040333 0.610396 1.549212 0.744190 -0.098136 0.660719 1
-0.036473 0.607085 1.545153 0.323819 -0.444917 0.834979 1
-0.029148 0.595549 1.537737 0.457223 -0.366773 0.810200 1
-0.024601 0.586074 1.532092 0.765169 0.010319 0.643746 1
-0.016713 0.602370 1.521014 0.832588 -0.029517 0.553105 1
-0.028035 0.590880 1.532488 0.520354 -0.006443 0.853926 1
-0.027851 0.580962 1.536822 0.801283 0.060062 0.595263 1
-0.028798 0.605773 1.538012 0.832756 0.058805 0.550508 1
-0.062794 0.563017 1.579852 0.814221 -0.021002 0.580176 1
-0.048802 0.615264 1.560503 0.802402 -0.072066 0.592417 1
-0.019902 0.581496 1.525469 0.832639 -0.000787 0.553816 1
-0.011937 0.581267 1.512682 0.857095 -0.008950 0.515081 1
-0.008763 0.612166 1.510394 0.820781 0.035881 0.570114 1
-0.003682 0.625792 1.499133 0.784756 0.100856 0.611545 1
-0.020451 0.616530 1.525530 0.787015 0.156154 0.596844 1
-0.017048 0.630278 1.517809 0.801976 -0.100211 0.588891 1
-0.003163 0.598570 1.498827 0.843937 -0.074147 0.531294 1
-0.033299 0.609511 1.544177 0.742793 -0.022768 0.669133 1
-0.034474 0.604735 1.544695 0.099686 -0.455227 0.884777 1
-0.036625 0.567031 1.545489 0.669482 -0.150022 0.727521 1
0.004985 0.634932 1.488055 0.824214 -0.029742 0.565497 1
-0.008137 0.641112 1.510088 0.821154 -0.130790 0.555518 1
-0.004139 0.636992 1.502123 0.799743 -0.182921 0.571796 1
-0.000340 0.614348 1.496386 0.808053 0.015231 0.588913 1
-0.002034 0.631011 1.496661 0.803520 -0.049287 0.593233 1
-0.002751 0.610610 1.500567 0.777903 -0.042163 0.626969 1
0.015789 0.610701 1.473406 0.824332 0.007897 0.566052 1
0.038799 0.576354 1.442431 0.770608 -0.162034 0.616367 1
-0.027821 -0.595979 1.503802 0.749362 0.084539 0.656741 2
-0.020527 -0.586549 1.490984 0.795887 0.170755 0.580867 2
-0.029820 -0.587755 1.505999 0.835789 0.030121 0.548224 2
-0.165821 0.729827 1.732562 0.828687 -0.076162 0.554506 1
-0.159794 0.725463 1.724017 0.832243 0.007630 0.554358 1
-0.234028 0.764235 1.831988 0.855769 -0.064737 0.513292 1
-0.120900 0.789824 1.679858 0.820834 -0.040282 0.569744 1
-0.550068 -0.483308 2.141833 0.635854 -0.121690 0.762155 1
-0.559712 -0.487123 2.148638 0.680496 -0.094496 0.726633 1
-0.575215 -0.498857 2.177783 0.855049 0.101133 0.508589 1
-0.226170 0.739913 1.816363 0.846040 -0.049879 0.530780 1
-0.239598 0.746031 1.839526 0.845275 -0.088078 0.527023 1
0.001033 -0.424547 1.231799 -0.052057 0.998644 0.000246 2
-0.004841 -0.418641 1.248675 -0.006704 0.997115 -0.075609 2
0.005291 -0.414918 1.273913 -0.265189 0.963266 -0.042356 2
0.027156 -0.252855 0.074389 -0.022204 0.994555 0.101817 2
0.034587 -0.250825 0.071124 -0.411434 0.893328 0.180797 2
0.029689 -0.249696 0.059283 -0.159704 0.960521 0.227801 2
0.027172 -0.244340 0.042590 -0.338571 0.894089 0.293216 2
0.029506 -0.243333 0.043536 -0.302513 0.890685 0.339361 2
0.032985 -0.239854 0.035998 -0.379387 0.889958 0.253062 2
0.030773 -0.249070 0.058215 -0.437654 0.848480 0.297556 2
0.046764 -0.226457 -0.044477 -0.142297 0.978981 0.146108 2
0.043560 -0.223543 -0.061262 -0.069635 0.968720 0.238187 2
0.042400 -0.223863 -0.059614 -0.050377 0.951637 0.303067 2
0.018276 -0.232713 -0.030012 -0.007397 0.972202 0.234028 2
0.024074 -0.235292 -0.020246 -0.116440 0.966743 0.227705 2
0.034053 -0.232499 -0.031049 -0.144467 0.973595 0.176755 2
0.020763 -0.230684 -0.041761 0.020884 0.978208 0.206572 2
0.015651 -0.235597 -0.020795 0.003250 0.963126 0.269030 2
0.019970 -0.239213 -0.009901 -0.167908 0.973863 0.152965 2
0.023006 -0.228212 -0.054639 -0.052354 0.949161 0.310406 2
0.039714 -0.227418 -0.049757 -0.132451 0.954512 0.267139 2
0.044124 -0.220216 -0.070631 0.056902 0.958203 0.280373 2
0.052730 -0.221605 -0.065778 0.082664 0.966912 0.241346 2
0.081890 -0.197328 -0.157728 -0.468116 0.875842 0.117342 3
0.088634 -0.190843 -0.175611 -0.275146 0.961386 0.005634 3
0.076763 -0.198610 -0.176099 -0.270828 0.962532 0.013575 3
0.080440 -0.197358 -0.178754 -0.565675 0.824360 -0.021006 3
0.074855 -0.200700 -0.145887 -0.050683 0.988146 0.144912 3
0.079982 -0.199281 -0.152692 -0.342606 0.902447 0.261172 3
0.087780 -0.196260 -0.148389 -0.436028 0.863487 0.253515 3
0.091976 -0.191057 -0.160078 -0.208000 0.967525 0.143636 3
0.069011 -0.215730 -0.092817 -0.163946 0.948701 0.270347 3
0.066768 -0.219865 -0.081251 -0.013187 0.964687 0.263068 3
0.076015 -0.219148 -0.077772 -0.157061 0.949919 0.270158 3
0.084514 -0.210374 -0.104841 -0.177060 0.951113 0.253048 3
0.012798 -0.238298 -0.008619 0.095166 0.980402 0.172499 2
0.078838 -0.200151 -0.215559 -0.388578 0.921363 -0.009899 3
0.079342 -0.196382 -0.246229 -0.284439 0.958294 0.027690 3
0.040386 -0.197160 -0.423566 -0.188546 0.981708 0.026473 3
0.064907 -0.193040 -0.439893 -0.243963 0.969776 -0.004094 3
0.042934 -0.196397 -0.450635 -0.115310 0.992727 0.034584 3
0.061107 -0.193666 -0.490919 -0.164879 0.984999 0.050905 3
0.050029 -0.194871 -0.472181 0.065524 0.994468 0.082101 3
0.062328 -0.192994 -0.461011 -0.194169 0.980896 0.011895 3
0.039714 -0.179750 -0.554914 0.245172 0.963198 0.110186 3
0.056347 -0.182832 -0.580610 0.124179 0.989171 0.078231 3
0.051479 -0.181108 -0.586896 0.211663 0.971933 0.102690 3
0.053112 -0.183107 -0.556440 0.176996 0.979246 0.098740 3
0.060756 -0.183275 -0.569990 -0.032081 0.996828 0.072838 3
0.063884 -0.192201 -0.388990 -0.122671 0.992252 0.019700 3
0.052181 -0.196809 -0.382368 -0.289630 0.955179 0.061215 3
0.060863 -0.193254 -0.375379 -0.271379 0.952909 0.135342 3
0.046077 -0.197801 -0.407362 -0.216979 0.975455 0.037506 3
0.069210 -0.192521 -0.392194 0.052538 0.996505 0.064937 3
0.065990 -0.191987 -0.409101 -0.249198 0.967934 0.031696 3
0.066417 -0.195390 -0.363813 0.025288 0.982581 0.184108 3
0.082332 -0.196657 -0.363813 0.033389 0.995863 0.084508 3
0.069744 -0.195939 -0.371076 0.090397 0.989928 0.108951 3
0.027782 -0.236772 -0.006055 -0.316726 0.943429 0.098114 2
0.056591 -0.186097 -0.531629 0.032867 0.993104 0.112537 3
0.052913 -0.188844 -0.512861 0.149758 0.975644 0.160286 3
0.057338 -0.191560 -0.504926 -0.043543 0.986319 0.158996 3
-0.569798 -0.538896 2.160784 0.774713 -0.218582 0.593331 1
0.067791 -0.221742 -0.075269 0.056398 0.964676 0.257333 2
0.051235 -0.195421 -0.453901 -0.149448 0.987764 0.044592 3
0.052394 -0.218736 -0.077863 0.087171 0.975308 0.202920 2
0.032314 -0.253129 0.085131 -0.198884 0.975424 0.094829 2
0.045208 -0.253206 0.115222 -0.064007 0.980617 0.185186 2
0.042080 -0.248109 0.080340 -0.428385 0.887363 0.170509 2
0.041454 -0.256563 0.130724 0.015058 0.969890 0.243079 2
0.060100 -0.258043 0.133074 0.067456 0.960682 0.269334 2
0.030010 -0.275163 0.191119 -0.247291 0.948987 0.195631 2
0.048946 -0.271547 0.198443 -0.072179 0.977075 0.200284 2
0.045177 -0.269166 0.179308 -0.173887 0.963000 0.205898 2
0.028652 -0.278291 0.208453 -0.296786 0.947745 0.117036 2
0.040508 -0.274522 0.200762 -0.065119 0.980586 0.184963 2
0.049923 -0.266603 0.168505 0.007042 0.978058 0.208215 2
0.055492 -0.261949 0.147204 0.036680 0.967449 0.250392 2
0.033931 -0.265550 0.160876 -0.026527 0.959514 0.280410 2
0.027263 -0.281541 0.224688 -0.191527 0.969999 0.149732 2
0.021144 -0.294542 0.281847 -0.075457 0.967212 0.242501 2
0.025753 -0.290696 0.271044 -0.309129 0.926590 0.214172 2
0.019130 -0.289964 0.266192 0.041125 0.978387 0.202654 2
0.016063 -0.285798 0.243243 -0.016615 0.983037 0.182654 2
0.027111 -0.284807 0.238360 -0.226766 0.953716 0.197492 2
0.013301 -0.287614 0.258593 0.111392 0.982619 0.148496 2
0.041607 -0.290498 0.299548 -0.188018 0.968728 0.161912 2
0.029354 -0.292451 0.282763 -0.374708 0.898704 0.227868 2
0.065258 -0.292543 0.327868 -0.211866 0.964430 0.158075 2
0.084957 -0.291505 0.349963 -0.269857 0.945659 0.181402 2
0.064907 -0.290025 0.308672 -0.233800 0.962396 0.138316 2
0.041378 -0.293046 0.313525 -0.102478 0.977693 0.183341 2
0.080883 -0.294069 0.355090 -0.282698 0.938704 0.197273 2
0.070812 -0.292863 0.339190 -0.258172 0.946588 0.193180 2
0.055751 -0.293748 0.324786 -0.132974 0.969253 0.207042 2
0.097698 -0.293367 0.403735 -0.338591 0.939954 0.042924 2
0.092373 -0.293580 0.380114 -0.380765 0.919810 0.094697 2
0.083706 -0.296953 0.380541 -0.297519 0.952913 0.058642 2
0.086574 -0.294450 0.367358 -0.338832 0.930842 0.136844 2
0.097240 -0.288637 0.356738 -0.340293 0.931661 0.127310 2
0.164531 -0.209199 0.222826 -0.768278 0.614875 0.177983 2
0.157695 -0.213548 0.213793 -0.029325 0.987215 0.156673 2
0.168132 -0.210023 0.237261 -0.616121 0.744439 0.257304 2
0.057048 -0.288576 0.285510 -0.029502 0.993008 0.114305 2
0.029399 -0.240129 0.030810 -0.326061 0.934713 0.141404 2
0.036617 -0.236665 0.024432 -0.256622 0.959761 0.114037 2
0.168132 -0.215669 0.259722 -0.091908 0.886710 0.453098 2
0.155269 -0.223070 0.274432 -0.107394 0.718310 0.687385 2
0.164714 -0.220643 0.266528 -0.296417 0.884681 0.359829 2
0.055309 -0.359971 0.835528 -0.561951 0.798290 0.216666 2
0.066417 -0.356035 0.864825 -0.629002 0.760374 0.161825 2
0.050060 -0.359865 0.821337 -0.348722 0.929304 0.121604 2
0.049633 -0.354265 0.770770 -0.038149 0.989049 0.142569 2
0.057872 -0.352739 0.764147 -0.142936 0.978643 0.147737 2
0.046795 -0.350328 0.740344 -0.101221 0.985985 0.132620 2
0.051845 -0.345399 0.708453 -0.270018 0.939897 0.209008 2
0.057781 -0.333024 0.648486 -0.119283 0.987607 0.102000 2
0.066478 -0.330415 0.632891 -0.167273 0.978810 0.118111 2
0.060222 -0.330674 0.625140 -0.217068 0.972098 0.088925 2
0.049465 -0.348039 0.721545 -0.203233 0.971990 0.118030 2
0.079799 -0.309892 0.530077 -0.160654 0.973969 0.159919 2
0.082866 -0.309099 0.528277 -0.064538 0.974305 0.215788 2
0.082042 -0.306611 0.506152 -0.255880 0.965698 0.044184 2
0.079784 -0.318849 0.556994 -0.122702 0.945164 0.302671 2
0.088573 -0.315309 0.548052 -0.049200 0.957039 0.285754 2
0.076992 -0.313707 0.541918 -0.105543 0.944584 0.310839 2
0.093502 -0.302461 0.494830 -0.381826 0.917395 0.112225 2
0.100536 -0.289659 0.376513 -0.457320 0.884141 0.095674 2
0.102703 -0.291124 0.403796 -0.549050 0.834159 0.052179 2
0.106075 -0.290361 0.461352 -0.500929 0.858224 0.111899 2
0.083950 -0.320100 0.562396 -0.247071 0.963747 0.100734 2
0.102321 -0.292207 0.423968 -0.450772 0.892427 0.019459 2
0.104717 -0.290330 0.403765 -0.462953 0.885959 0.027409 2
0.083889 -0.300157 0.436541 -0.458488 0.882373 0.105862 2
0.078090 -0.306703 0.459246 -0.479059 0.871652 0.103564 2
0.097606 -0.295747 0.464800 -0.474284 0.873800 0.107373 2
0.076732 -0.321809 0.568774 -0.161948 0.980049 0.115227 2
0.075710 -0.327257 0.624560 -0.266087 0.958906 0.098472 2
0.036220 -0.371522 0.896838 -0.002014 0.991757 0.128118 2
0.051571 -0.372209 0.893725 -0.132034 0.987886 0.081532 2
0.052913 -0.370775 0.883807 -0.057826 0.990031 0.128433 2
0.060634 -0.369081 0.886706 -0.337595 0.938847 0.067796 2
0.055828 -0.368043 0.871447 -0.384145 0.903091 0.191988 2
0.063198 -0.353135 0.776934 -0.250323 0.966444 0.057660 2
0.066219 -0.351411 0.763049 -0.324834 0.941521 0.089564 2
0.032940 -0.384843 0.983996 -0.324614 0.940310 0.102187 2
0.038662 -0.378435 0.948931 -0.440551 0.894668 0.074050 2
0.035503 -0.378496 0.936755 -0.344856 0.930355 0.124555 2
0.058361 -0.363756 0.862322 -0.673933 0.708473 0.209476 2
0.059902 -0.359773 0.851183 -0.655231 0.734085 0.178303 2
0.083980 -0.305864 0.481493 -0.360129 0.932466 0.028523 2
0.300838 -0.151414 1.101244 0.705928 -0.145983 0.693077 2
0.298290 -0.155687 1.103655 0.770595 -0.176462 0.612409 2
0.311519 -0.163530 1.083544 0.750407 -0.031311 0.660234 2
0.053844 -0.357362 0.812274 -0.381910 0.921567 0.069707 2
0.061458 -0.354448 0.818041 -0.448507 0.893569 0.019405 2
0.134700 -0.341783 0.981280 -0.760109 0.639582 0.114754 2
0.137249 -0.344941 1.007403 -0.572450 0.796118 0.196207 2
0.140316 -0.339967 1.004656 -0.711875 0.669860 0.211000 2
0.432216 -0.104661 0.944079 0.734336 0.136923 0.664833 1
0.435176 -0.123399 0.942187 0.806080 0.110204 0.581456 2
0.438442 -0.118730 0.936358 0.731162 0.247763 0.635622 2
0.435756 -0.107957 0.939776 0.741344 -0.084235 0.665817 2
0.299022 -0.403428 1.110034 0.654228 0.082806 0.751750 1
0.292705 -0.398805 1.117419 0.781800 0.124417 0.610991 1
0.294658 -0.411348 1.117114 0.688883 0.282293 0.667646 1
0.029399 -0.396348 1.100482 0.012219 0.999422 0.031729 2
0.035198 -0.399003 1.120715 -0.069804 0.985304 0.155896 2
0.031734 -0.396119 1.070483 -0.011841 0.999047 0.042002 2
0.034435 -0.395555 1.063372 -0.294283 0.953112 0.070527 2
0.011440 -0.540239 1.459765 -0.236143 0.373686 0.896992 2
0.161251 -0.320039 0.965075 -0.766712 0.641751 0.017550 2
0.300808 -0.302858 1.107623 0.794234 -0.047457 0.605756 1
0.309459 -0.312150 1.095873 0.778543 0.016112 0.627384 1
0.323284 -0.306474 1.077593 0.777904 -0.045598 0.626727 1
0.148220 -0.330507 0.963183 -0.596091 0.800676 0.059942 2
0.150905 -0.323655 0.940295 -0.594253 0.792417 0.137618 2
0.147594 -0.328737 0.948199 -0.538248 0.833085 0.127509 2
0.159176 -0.320497 0.938433 -0.647032 0.752312 0.124001 2
0.136501 -0.336915 0.948382 -0.577129 0.809700 0.106338 2
0.445644 -0.119478 0.927844 0.745257 0.093993 0.660119 2
0.423687 -0.128129 0.958972 0.805768 0.065829 0.588562 2
0.417934 -0.125001 0.964831 0.693481 0.278530 0.664459 2
0.408413 -0.160112 0.979907 0.720316 0.014102 0.693502 2
0.415599 -0.137727 0.971362 0.740503 -0.116784 0.661829 2
0.409771 -0.134797 0.977068 0.363020 0.269243 0.892034 2
0.435054 -0.110444 0.938921 0.662870 0.009926 0.748668 2
0.421993 -0.110597 0.950243 0.678621 0.145485 0.719936 2
0.433086 -0.127138 0.945483 0.800237 0.051781 0.597444 1
0.406475 -0.142763 0.978747 0.668879 0.063954 0.740615 2
0.428173 -0.146043 0.951556 0.811803 -0.014229 0.583758 1
0.430645 -0.133424 0.949084 0.816423 -0.026885 0.576828 1
0.410717 -0.160493 0.976428 0.791057 0.031606 0.610925 2
0.407390 -0.164522 0.980120 0.760326 -0.138769 0.634545 1
0.422069 -0.155336 0.960131 0.801296 0.034565 0.597269 1
0.416408 -0.081529 0.956408 0.802989 -0.063974 0.592550 2
0.406307 -0.077195 0.970904 0.830558 -0.030869 0.556076 2
0.419612 -0.138566 0.965136 0.792440 -0.388566 0.470165 2
0.406917 -0.136491 0.971575 -0.999741 -0.000705 0.022732 2
0.430660 -0.107835 0.941912 0.593383 0.081528 0.800781 2
0.401668 -0.129976 0.971301 0.765352 0.308836 0.564673 2
0.403011 -0.141343 0.977496 0.784079 0.295368 0.545874 2
0.404781 -0.143739 0.978869 0.572473 0.309820 0.759135 2
0.402462 -0.156877 0.986346 0.743353 0.194654 0.639951 2
0.384426 -0.173646 1.004351 0.798965 -0.047706 0.599483 1
0.391445 -0.172639 0.996020 0.780979 -0.080007 0.619412 1
