-0.211695 0.149571 0.683367 0.811467 -0.563435 0.155123 2
-0.202341 0.141621 0.607164 0.814054 -0.498410 0.298168 2
-0.199167 0.131123 0.585131 0.818912 -0.492457 0.294734 2
-0.195673 0.136189 0.582293 0.874404 -0.438561 0.207562 2
-0.193033 0.134007 0.563829 0.882713 -0.445673 0.148973 2
-0.188562 0.129994 0.519671 0.866275 -0.475127 0.154344 2
-0.186197 0.127797 0.501024 0.849003 -0.501394 0.166726 2
-0.183863 0.125752 0.481829 0.882303 -0.440239 0.166525 2
-0.181528 0.123540 0.463549 0.930885 -0.333914 0.148173 2
-0.179010 0.121556 0.443377 0.932487 -0.328536 0.150108 2
-0.176218 0.119435 0.423174 0.858667 -0.457759 0.230536 2
-0.172907 0.116887 0.409441 0.733827 -0.597078 0.324030 2
-0.173471 0.109425 0.396410 0.751025 -0.607574 0.258485 2
-0.167063 0.112263 0.382006 0.765212 -0.627690 0.143025 2
-0.165445 0.110661 0.355516 0.808719 -0.581831 0.086296 2
-0.163599 0.109013 0.330004 0.768087 -0.628239 0.123924 2
-0.161219 0.106984 0.310473 0.655761 -0.728459 0.198303 2
-0.158258 0.104741 0.295549 0.623061 -0.733031 0.272875 2
-0.155054 0.101811 0.284624 0.715474 -0.579088 0.390839 2
-0.151697 0.099095 0.273333 0.842301 -0.483746 0.237738 2
-0.148950 0.096822 0.254869 0.857327 -0.492240 0.150635 2
-0.146768 0.094884 0.229815 0.811282 -0.570706 0.126949 2
-0.141458 0.090428 0.191942 0.828257 -0.521415 0.205226 2
-0.138986 0.088353 0.173204 0.834674 -0.532607 0.140175 2
-0.136820 0.086430 0.151079 0.768350 -0.606877 0.203320 2
-0.133539 0.083790 0.137102 0.775797 -0.489729 0.397875 2
-0.129526 0.080693 0.128954 0.824159 -0.368374 0.430190 2
-0.125986 0.077916 0.117601 0.873151 -0.460203 0.160686 2
-0.126276 0.077061 0.040361 0.917451 -0.397464 -0.017499 3
-0.126612 0.076726 0.000353 0.976625 -0.211959 0.035731 3
-0.124552 0.074910 -0.021925 0.984030 -0.149831 0.096107 3
-0.122507 0.073094 -0.044294 0.936192 -0.328545 0.124906 3
-0.127466 0.074727 -0.193861 0.993709 -0.046168 0.102031 3
-0.124842 0.072530 -0.211897 0.974236 -0.179162 0.136987 3
-0.122812 0.070698 -0.234297 0.929014 -0.366070 0.054084 3
-0.122660 0.070103 -0.270918 0.914429 -0.404656 -0.008525 3
-0.124353 0.070668 -0.320997 0.943698 -0.328247 -0.041078 3
-0.126047 0.071263 -0.371199 0.966300 -0.256392 -0.022955 3
-0.126154 0.070836 -0.409651 0.976475 -0.213338 0.031375 3
-0.124857 0.069478 -0.437544 0.962766 -0.264651 0.055148 3
-0.123865 0.068303 -0.467634 0.953521 -0.300593 0.021024 3
-0.123621 0.067647 -0.503401 0.940848 -0.338133 0.021724 3
-0.122766 0.066594 -0.534742 0.926733 -0.373812 0.037824 3
-0.052011 0.163624 -0.064741 0.670919 -0.726195 0.150026 3
0.126730 0.178807 0.134050 -0.462585 -0.885855 0.035733 3
0.130102 0.178395 0.168810 -0.443020 -0.896368 0.016052 3
0.126364 0.186955 0.222521 -0.669609 -0.738474 0.079248 3
-0.507166 0.539708 2.283220 0.879863 -0.089982 0.466631 1
-0.503534 0.545720 2.278551 0.840542 -0.107031 0.531069 1
-0.498209 0.543431 2.271593 0.773633 -0.105735 0.624749 1
-0.546030 0.413319 2.322893 0.803628 -0.093355 0.587765 1
-0.540827 0.401585 2.313829 0.796822 -0.127527 0.590603 1
-0.532007 0.386937 2.295641 0.820805 -0.185147 0.540370 1
-0.527750 0.383656 2.288408 0.798429 -0.156537 0.581384 1
-0.492136 0.371922 2.234545 0.834311 -0.136474 0.534135 1
-0.483988 0.365727 2.219347 0.847921 -0.127117 0.514657 1
-0.478845 0.354161 2.208208 0.834804 -0.124592 0.536264 1
-0.475733 0.359349 2.205614 0.751449 -0.225680 0.619994 1
-0.471369 0.356145 2.199327 0.729551 -0.227423 0.645007 1
-0.454279 0.342961 2.178576 0.779786 -0.178165 0.600159 1
-0.450189 0.339741 2.171251 0.859397 -0.201946 0.469738 1
-0.449304 0.331456 2.165545 0.859985 -0.171306 0.480708 1
-0.440943 0.325093 2.151812 0.719897 -0.027961 0.693517 1
-0.424860 0.320531 2.132494 0.892520 -0.332395 0.304830 1
-0.422174 0.318318 2.115587 0.934629 -0.347312 0.076441 2
-0.421533 0.317525 2.078966 0.953770 -0.295860 0.052816 2
-0.419489 0.315663 2.056749 0.966100 -0.174926 0.189875 2
-0.415979 0.312825 2.046801 0.923724 -0.054460 0.379167 2
-0.412302 0.309895 2.037371 0.925810 -0.269236 0.265308 2
-0.409540 0.307667 2.019854 0.874336 -0.471022 0.116936 2
-0.407907 0.306142 1.993608 0.853880 -0.505227 0.125040 2
-0.405268 0.303929 1.975573 0.861369 -0.454413 0.227051 2
-0.401789 0.301152 1.964220 0.897841 -0.315133 0.307526 2
-0.398691 0.298634 1.949602 0.964924 -0.202052 0.167622 2
-0.396387 0.296651 1.929003 0.989562 -0.093442 0.109707 2
-0.391840 0.292683 1.887651 0.981830 -0.101612 0.160267 2
-0.388834 0.290257 1.872332 0.967286 -0.140524 0.211213 2
-0.383860 0.278126 1.824572 0.951814 -0.259425 0.163549 2
-0.381037 0.283650 1.818102 0.938421 -0.251707 0.236665 2
-0.377787 0.281026 1.805132 0.923471 -0.229352 0.307569 2
-0.374292 0.278310 1.794909 0.875378 -0.330966 0.352383 2
-0.371164 0.275868 1.782213 0.805042 -0.559120 0.198223 2
-0.372599 0.269032 1.763414 0.789431 -0.587289 0.178578 2
-0.365686 0.271428 1.747149 0.765236 -0.556812 0.323070 2
-0.361811 0.268193 1.736254 0.766567 -0.476205 0.430817 2
-0.358316 0.265370 1.726519 0.845694 -0.440252 0.301627 2
-0.355585 0.263066 1.711626 0.880629 -0.449945 0.148469 2
-0.357355 0.256322 1.690691 0.910171 -0.410705 0.053942 2
-0.351206 0.258717 1.629137 0.898502 -0.347871 0.267732 2
-0.343988 0.253056 1.608385 0.864203 -0.418133 0.279854 2
-0.341196 0.250813 1.590288 0.891986 -0.418853 0.170069 2
-0.337397 0.247243 1.547228 0.896266 -0.420113 0.142169 2
-0.335169 0.244801 1.531267 0.933238 -0.270542 0.236378 2
-0.323435 0.235524 1.462664 0.919934 -0.343264 0.189448 2
-0.320627 0.233556 1.447557 0.853478 -0.439662 0.279772 2
-0.317514 0.230839 1.435625 0.832927 -0.494799 0.247805 2
-0.314981 0.228749 1.418810 0.858459 -0.500197 0.113363 2
-0.313410 0.227101 1.389269 0.882264 -0.470059 0.025580 2
-0.316309 0.221059 1.354174 0.896952 -0.440988 0.031735 2
-0.312113 0.225392 1.317217 0.929609 -0.351943 0.109379 2
-0.309000 0.222859 1.301897 0.894649 -0.295461 0.335120 2
-0.305094 0.219823 1.293596 0.805574 -0.318213 0.499791 2
-0.301264 0.216817 1.285082 0.828515 -0.415669 0.375208 2
-0.301523 0.209111 1.272997 0.870442 -0.440999 0.218750 2
-0.299112 0.207036 1.253740 0.877763 -0.445161 0.177100 2
-0.293009 0.209981 1.234667 0.861406 -0.448240 0.238874 2
-0.289850 0.207417 1.221056 0.871030 -0.433617 0.230833 2
-0.287180 0.205220 1.202806 0.897370 -0.412435 0.156918 2
-0.284937 0.203267 1.181810 0.874901 -0.463533 0.140307 2
-0.282694 0.201283 1.161364 0.838784 -0.528326 0.131576 2
-0.281641 0.192174 1.121050 0.804081 -0.559399 0.201313 2
-0.275080 0.194813 1.106096 0.805851 -0.528907 0.266196 2
-0.271875 0.192128 1.091814 0.844153 -0.453096 0.286549 2
-0.268640 0.189580 1.078661 0.889416 -0.390555 0.237499 2
-0.266001 0.187276 1.062334 0.882693 -0.452800 0.125800 2
-0.264292 0.185811 1.036180 0.857550 -0.507103 0.086337 2
-0.262461 0.184102 1.011553 0.815659 -0.552931 0.170198 2
-0.259470 0.181721 0.997301 0.814065 -0.476577 0.331924 2
-0.256052 0.178868 0.985003 0.906388 -0.333421 0.259406 2
-0.252970 0.176335 0.969469 0.963622 -0.208538 0.167167 2
-0.250543 0.174306 0.949846 0.969494 -0.212971 0.121348 2
-0.248499 0.172520 0.928118 0.953107 -0.285819 0.099474 2
-0.247812 0.163701 0.887346 0.913790 -0.393960 0.098910 2
-0.244638 0.169026 0.882799 0.875360 -0.458652 0.152917 2
-0.241938 0.166753 0.865099 0.843746 -0.502743 0.187996 2
-0.239282 0.164616 0.846514 0.809896 -0.562233 0.167222 2
-0.236795 0.162465 0.826494 0.786765 -0.590271 0.180504 2
-0.234003 0.160100 0.809618 0.807681 -0.544845 0.225380 2
-0.231089 0.157704 0.793993 0.864056 -0.456453 0.212270 2
-0.225885 0.153203 0.760180 0.881378 -0.437550 0.178110 2
-0.223383 0.151051 0.742113 0.846142 -0.497753 0.190485 2
-0.222666 0.134602 0.687243 0.813735 -0.560133 0.155197 2
-0.213114 0.142659 0.665972 0.829484 -0.532773 0.167659 2
-0.210901 0.140568 0.648302 0.848866 -0.508676 0.143790 2
-0.208795 0.138737 0.626421 0.859931 -0.486916 0.153071 2
-0.206003 0.136479 0.608660 0.831437 -0.481216 0.277747 2
-0.196421 0.129063 0.566881 0.812880 -0.564603 0.143003 2
-0.194467 0.127156 0.543230 0.811732 -0.567807 0.136699 2
-0.191950 0.124806 0.521807 0.821128 -0.547227 0.162147 2
-0.186975 0.120473 0.483294 0.850779 -0.485503 0.201151 2
-0.184275 0.118031 0.468645 0.905811 -0.378020 0.191333 2
-0.181742 0.115971 0.450487 0.931791 -0.333939 0.142302 2
-0.179422 0.114064 0.427080 0.912702 -0.382678 0.143294 2
-0.171045 0.107228 0.379625 0.798330 -0.587525 0.132226 2
-0.167551 0.104237 0.329546 0.783411 -0.612719 0.104124 2
-0.165460 0.102406 0.307055 0.741507 -0.644517 0.186455 2
-0.162317 0.099766 0.292772 0.711932 -0.593945 0.374677 2
-0.158701 0.096699 0.284014 0.715599 -0.531801 0.452886 2
-0.155222 0.093877 0.274645 0.771473 -0.559080 0.303742 2
-0.152506 0.091756 0.256762 0.785397 -0.603331 0.138356 2
-0.150492 0.089894 0.229692 0.782762 -0.607758 0.133843 2
-0.147867 0.087681 0.209124 0.797272 -0.573354 0.188740 2
-0.140406 0.081349 0.153215 0.871114 -0.461950 0.166621 2
-0.137262 0.078770 0.138567 0.820519 -0.450204 0.352227 2
-0.133219 0.075673 0.130419 0.758493 -0.476131 0.444958 2
-0.129541 0.072774 0.119158 0.754806 -0.633518 0.170065 2
-0.128443 0.071583 0.089586 0.753793 -0.656533 0.027576 2
-0.128946 0.071385 0.048265 0.862316 -0.506336 0.005969 3
-0.127924 0.070225 0.018297 0.988395 -0.127831 0.082062 3
-0.126200 0.068608 -0.006483 0.994507 -0.088966 0.055144 3
-0.125162 0.067372 -0.036116 0.953737 -0.300629 0.002906 3
-0.128534 0.075947 -0.164320 0.992079 -0.118808 0.040780 3
-0.129999 0.069508 -0.147444 0.952558 -0.304354 -0.001489 3
-0.128961 0.068333 -0.177290 0.976666 -0.202756 0.070800 3
-0.126917 0.066472 -0.199537 0.974318 -0.202008 0.099487 3
-0.125376 0.065007 -0.225813 0.921229 -0.387355 0.035974 3
-0.125818 0.064259 -0.304243 0.926239 -0.375304 -0.035045 3
-0.127573 0.064870 -0.354811 0.926820 -0.374919 -0.020984 3
-0.127771 0.064442 -0.393782 0.960007 -0.279551 0.015399 3
-0.126688 0.063252 -0.423384 0.983969 -0.171028 0.050544 3
-0.125528 0.062016 -0.452406 0.985485 -0.167886 0.025172 3
-0.125559 0.061482 -0.490034 0.978418 -0.206610 0.003339 3
-0.125360 0.060887 -0.526289 0.961001 -0.275989 0.017546 3
0.102926 0.178227 -0.585585 -0.214318 -0.976716 -0.009715 3
0.037451 0.194417 -0.106062 0.156968 -0.985438 0.065373 3
-0.053141 0.424855 1.586351 0.707388 -0.197011 0.678815 1
-0.049875 0.430516 1.584154 0.720194 -0.115387 0.684110 1
0.003729 0.549519 1.513994 0.821067 -0.019535 0.570498 1
-0.545023 0.404744 2.320421 0.830802 -0.086221 0.549850 1
-0.543985 0.396291 2.317125 0.831156 -0.153268 0.534498 1
-0.532770 0.395360 2.300219 0.819511 -0.191306 0.540189 1
-0.520395 0.385670 2.279467 0.790569 -0.109828 0.602444 1
-0.515009 0.374043 2.269945 0.820723 -0.116924 0.559234 1
-0.503321 0.373006 2.251848 0.821001 -0.164602 0.546684 1
-0.491098 0.363515 2.230608 0.816648 -0.173988 0.550285 1
-0.487055 0.360356 2.223375 0.842801 -0.119243 0.524850 1
-0.474573 0.350941 2.201616 0.747105 -0.108841 0.655735 1
-0.470255 0.347615 2.196642 0.698346 -0.087219 0.710426 1
-0.465097 0.335744 2.189806 0.741835 -0.136565 0.656529 1
-0.453409 0.334492 2.174212 0.816428 -0.210668 0.537647 1
-0.445200 0.328404 2.157335 0.798839 -0.104071 0.592475 1
-0.436518 0.321751 2.147539 0.693745 -0.088467 0.714767 1
-0.432230 0.318440 2.142626 0.749530 -0.162827 0.641633 1
-0.428141 0.315327 2.135485 0.873445 -0.281218 0.397504 1
-0.425104 0.312855 2.122026 0.932517 -0.338242 0.126511 1
-0.423822 0.311558 2.091234 0.958413 -0.279302 0.058607 2
-0.422083 0.309926 2.065874 0.972840 -0.186680 0.136868 2
-0.418970 0.307408 2.052355 0.937675 -0.155358 0.310853 2
-0.415522 0.304661 2.040880 0.887377 -0.399646 0.229883 2
-0.412928 0.302510 2.021990 0.836649 -0.532300 0.129132 2
-0.414789 0.295796 1.997850 0.871295 -0.472250 0.133512 2
-0.408625 0.298680 1.978441 0.885165 -0.346995 0.309963 2
-0.408243 0.290532 1.971575 0.907972 -0.262925 0.326277 2
-0.401697 0.293156 1.954973 0.901687 -0.348257 0.256277 2
-0.398767 0.290776 1.939196 0.942425 -0.285621 0.173939 2
-0.396280 0.288701 1.919939 0.979513 -0.159040 0.123536 2
-0.394174 0.286839 1.897936 0.944302 -0.299760 0.135788 2
-0.391626 0.284657 1.879412 0.948180 -0.233293 0.215706 2
-0.388483 0.282094 1.865435 0.961330 -0.221774 0.163280 2
-0.377512 0.272938 1.799273 0.908300 -0.312370 0.278238 2
-0.374750 0.270711 1.784441 0.883322 -0.435360 0.173792 2
-0.369455 0.266637 1.746782 0.725512 -0.570212 0.385346 2
-0.361704 0.260243 1.727556 0.780596 -0.494910 0.381752 2
-0.358927 0.257848 1.713305 0.863053 -0.479474 0.158884 2
-0.356333 0.255086 1.658373 0.946083 -0.315801 0.072085 2
-0.354257 0.253270 1.634508 0.939191 -0.297640 0.171263 2
-0.351007 0.250630 1.621294 0.856990 -0.382228 0.345645 2
-0.347422 0.247914 1.609850 0.818435 -0.507151 0.270116 2
-0.344629 0.245610 1.593706 0.884531 -0.442645 0.147209 2
-0.340387 0.241597 1.553270 0.928520 -0.338943 0.151552 2
-0.337931 0.239201 1.537004 0.949250 -0.224745 0.220033 2
-0.324259 0.238118 1.474901 0.957835 -0.249187 0.143034 2
-0.323816 0.228062 1.449755 0.914986 -0.343534 0.211624 2
-0.320932 0.225270 1.437304 0.882037 -0.399181 0.250331 2
-0.318247 0.223195 1.420671 0.874243 -0.469841 0.122265 2
-0.316568 0.221715 1.391558 0.857646 -0.512036 0.047566 2
-0.314829 0.219670 1.325151 0.950912 -0.289707 0.108796 2
-0.312143 0.217488 1.306627 0.941333 -0.238167 0.239099 2
-0.308512 0.214650 1.295732 0.849591 -0.310084 0.426665 2
-0.308161 0.206517 1.288652 0.855620 -0.382164 0.349091 2
-0.296442 0.204777 1.236467 0.840002 -0.487962 0.237255 2
-0.293360 0.202260 1.222673 0.814247 -0.529278 0.238466 2
-0.290567 0.199971 1.206072 0.859377 -0.481640 0.171737 2
-0.286142 0.196034 1.163561 0.869760 -0.479330 0.117307 2
-0.284098 0.194249 1.140551 0.834765 -0.533468 0.136305 2
-0.278620 0.189732 1.105639 0.755420 -0.594944 0.274559 2
-0.275263 0.187062 1.092424 0.760746 -0.550898 0.343187 2
-0.271906 0.184315 1.081163 0.843053 -0.451382 0.292431 2
-0.269068 0.181920 1.066545 0.888213 -0.446799 0.106997 2
-0.265985 0.179036 1.012957 0.873415 -0.476102 0.102340 2
-0.263086 0.176655 0.998095 0.807158 -0.496076 0.320008 2
-0.255915 0.170918 0.975634 0.883833 -0.383168 0.268368 2
-0.253137 0.168584 0.959307 0.930788 -0.332587 0.151724 2
-0.251062 0.166798 0.937456 0.941741 -0.322487 0.095533 2
-0.252268 0.159596 0.920549 0.915906 -0.392421 0.084392 2
-0.245554 0.161778 0.865923 0.786815 -0.598617 0.150268 2
-0.243051 0.159810 0.845232 0.720870 -0.674641 0.158762 2
-0.240595 0.157643 0.825640 0.741264 -0.638435 0.207192 2
-0.237573 0.155019 0.810350 0.806894 -0.527355 0.266118 2
-0.234445 0.152470 0.796434 0.849212 -0.455591 0.266973 2
-0.231592 0.150105 0.781603 0.886866 -0.418239 0.196329 2
-0.232309 0.142705 0.766893 0.871435 -0.462345 0.163825 2
-0.226709 0.145879 0.743456 0.863915 -0.479146 0.155147 2
-0.230936 0.133534 0.729021 0.838904 -0.522361 0.152904 2
-0.221231 0.141514 0.707628 0.827848 -0.532743 0.175649 2
-0.216684 0.137456 0.667986 0.856267 -0.479365 0.192394 2
-0.214228 0.135197 0.651171 0.893777 -0.419555 0.158546 2
-0.212091 0.133275 0.629534 0.900720 -0.410396 0.142406 2
-0.209406 0.131093 0.610979 0.865036 -0.438585 0.243631 2
-0.202799 0.126103 0.585619 0.789733 -0.559145 0.252347 2
-0.200312 0.124226 0.566210 0.726202 -0.674087 0.135048 2
-0.198328 0.122273 0.542315 0.762124 -0.631029 0.144809 2
-0.195474 0.119710 0.522081 0.822895 -0.539672 0.177757 2
-0.192804 0.117512 0.501757 0.851266 -0.494822 0.174635 2
-0.190256 0.115315 0.484026 0.838140 -0.497353 0.223964 2
-0.187357 0.112828 0.470842 0.838442 -0.489852 0.238873 2
-0.184702 0.110631 0.455004 0.862809 -0.480300 0.157710 2
-0.182520 0.108739 0.432390 0.875372 -0.461718 0.143321 2
-0.179895 0.106633 0.412767 0.877849 -0.434479 0.201517 2
-0.177057 0.104222 0.397448 0.864677 -0.455334 0.212142 2
-0.174616 0.102040 0.379625 0.874623 -0.465018 0.137087 2
-0.172708 0.100499 0.357073 0.853986 -0.513110 0.086170 2
-0.171366 0.099187 0.330614 0.821777 -0.562874 0.088627 2
-0.169397 0.097707 0.308489 0.844173 -0.505671 0.177958 2
-0.166208 0.094670 0.293779 0.808732 -0.479306 0.340908 2
-0.162332 0.091679 0.284227 0.742969 -0.519370 0.422198 2
-0.158869 0.088978 0.273027 0.712522 -0.663197 0.229087 2
-0.156351 0.087056 0.253466 0.678370 -0.722695 0.132387 2
-0.154337 0.085057 0.228746 0.749846 -0.644861 0.147937 2
-0.151468 0.082616 0.210344 0.827175 -0.515297 0.224165 2
-0.152185 0.075200 0.197008 0.815470 -0.541273 0.205016 2
-0.145960 0.078099 0.179857 0.848920 -0.502041 0.165197 2
-0.143701 0.076009 0.158983 0.893166 -0.415001 0.173286 2
-0.140726 0.073537 0.141954 0.889439 -0.374867 0.261483 2
-0.137064 0.070683 0.130327 0.765277 -0.550531 0.333568 2
-0.133814 0.068135 0.115130 0.683626 -0.723862 0.093165 2
-0.133112 0.067189 0.082628 0.712746 -0.701022 0.023704 2
-0.132563 0.066319 0.049181 0.832557 -0.549171 0.072528 3
-0.130014 0.064168 0.030565 0.944092 -0.266955 0.193458 3
-0.127542 0.062077 0.011309 0.978927 -0.195046 0.060485 3
-0.126886 0.061146 -0.021406 0.932798 -0.359243 -0.028850 3
-0.129892 0.062581 -0.081404 0.917201 -0.395556 -0.047718 3
-0.127191 0.068211 -0.088942 0.874489 -0.482738 -0.047258 3
-0.131784 0.063283 -0.132948 0.963475 -0.267173 -0.018279 3
-0.131357 0.062474 -0.167372 0.956865 -0.287632 0.040960 3
-0.129709 0.060918 -0.192732 0.925380 -0.370119 0.081752 3
-0.128275 0.059453 -0.219496 0.894045 -0.445126 0.050451 3
-0.127695 0.058598 -0.252943 0.906868 -0.421282 0.010569 3
-0.128137 0.058354 -0.293714 0.898903 -0.437619 -0.021532 3
-0.130365 0.059285 -0.347914 0.889913 -0.455733 -0.019043 3
-0.129953 0.058507 -0.382399 0.960870 -0.271862 0.053103 3
-0.127100 0.055623 -0.436140 0.983182 -0.174732 0.053120 3
-0.126337 0.054631 -0.468092 0.994090 -0.108248 0.008221 3
-0.126810 0.054402 -0.509169 0.992701 -0.120486 -0.005224 3
0.111502 0.176778 -0.565412 -0.195431 -0.980654 -0.011201 3
0.099112 0.218754 0.547167 -0.505950 -0.842832 0.183434 2
-0.547083 0.390965 2.321245 0.860217 -0.080493 0.503535 1
-0.535211 0.381596 2.298845 0.834028 -0.138761 0.533988 1
-0.513056 0.357106 2.263018 0.831687 -0.132094 0.539303 1
-0.505533 0.359318 2.251055 0.844373 -0.138008 0.517675 1
-0.501367 0.356206 2.243242 0.831946 -0.160596 0.531106 1
-0.497309 0.353062 2.236040 0.811272 -0.140528 0.567529 1
-0.490076 0.355107 2.226763 0.807984 -0.143714 0.571409 1
-0.488230 0.338155 2.220598 0.849363 -0.093820 0.519404 1
-0.477747 0.345692 2.205034 0.830083 -0.088241 0.550614 1
-0.469293 0.339024 2.194963 0.711302 -0.092919 0.696717 1
-0.464197 0.327306 2.186357 0.770975 -0.175057 0.612333 1
-0.448358 0.323109 2.160906 0.834619 -0.152075 0.529418 1
-0.439905 0.316533 2.150011 0.715898 -0.090182 0.692356 1
-0.431543 0.310094 2.138842 0.866068 -0.238139 0.439563 1
-0.428156 0.307408 2.128008 0.933371 -0.303244 0.191991 1
-0.426096 0.305577 2.103930 0.961429 -0.262857 0.081003 2
-0.424433 0.304036 2.077318 0.975495 -0.194070 0.103663 2
-0.421884 0.301869 2.058886 0.951556 -0.229988 0.204074 2
-0.418924 0.299443 2.043291 0.878513 -0.446385 0.170165 2
-0.416590 0.297459 2.022509 0.852113 -0.509776 0.118455 2
-0.411859 0.293385 1.982195 0.928504 -0.254836 0.270072 2
-0.404993 0.287953 1.958055 0.901431 -0.352413 0.251450 2
-0.402002 0.285496 1.942736 0.868829 -0.446725 0.213479 2
-0.399240 0.283223 1.925646 0.860681 -0.486262 0.150922 2
-0.397150 0.281361 1.903521 0.862379 -0.486616 0.139669 2
-0.394724 0.279271 1.883989 0.872210 -0.444950 0.203149 2
-0.391458 0.276646 1.870958 0.881861 -0.408067 0.236223 2
-0.388880 0.274449 1.852892 0.904337 -0.404011 0.137661 2
-0.386850 0.272679 1.830126 0.892750 -0.419331 0.164799 2
-0.383936 0.270222 1.815355 0.908978 -0.306061 0.282995 2
-0.380579 0.267583 1.805223 0.917467 -0.274182 0.288233 2
-0.378046 0.265507 1.789415 0.879523 -0.455564 0.137479 2
-0.376367 0.264302 1.764788 0.811170 -0.570233 0.129758 2
-0.373499 0.261815 1.746508 0.750368 -0.590286 0.297505 2
-0.369303 0.258366 1.737017 0.714011 -0.484545 0.505376 2
-0.365320 0.255192 1.728502 0.823595 -0.427492 0.372749 2
-0.362314 0.252629 1.715319 0.875533 -0.444127 0.190246 2
-0.360453 0.250813 1.695848 0.895765 -0.434177 0.095367 2
-0.358957 0.249318 1.669176 0.929263 -0.361652 0.075357 2
-0.357172 0.247594 1.642443 0.943127 -0.308606 0.123590 2
-0.354273 0.245396 1.624407 0.897075 -0.377196 0.230174 2
-0.350992 0.242848 1.610338 0.814897 -0.510399 0.274656 2
-0.348154 0.240483 1.594988 0.826675 -0.513522 0.230008 2
-0.345590 0.238301 1.577562 0.906504 -0.386154 0.170691 2
-0.343210 0.235936 1.560350 0.948622 -0.258095 0.183041 2
-0.340570 0.233494 1.544268 0.954360 -0.210078 0.212285 2
-0.337564 0.230962 1.530046 0.936231 -0.238140 0.258382 2
-0.326746 0.222386 1.454393 0.933964 -0.321475 0.156090 2
-0.323786 0.219899 1.440416 0.915656 -0.340760 0.213204 2
-0.321192 0.217732 1.421770 0.896818 -0.428478 0.110110 2
-0.319925 0.216572 1.392076 0.862064 -0.504945 0.043306 2
-0.319223 0.215611 1.359392 0.903934 -0.423711 0.058072 2
-0.317301 0.213856 1.335131 0.958720 -0.259182 0.116963 2
-0.314875 0.211827 1.314470 0.965356 -0.201289 0.166043 2
-0.311762 0.209340 1.299395 0.920009 -0.253869 0.298554 2
-0.304804 0.203831 1.276171 0.897273 -0.380409 0.224032 2
-0.302240 0.201649 1.258043 0.904623 -0.395990 0.157635 2
-0.299814 0.199574 1.238665 0.868493 -0.461187 0.181730 2
-0.296991 0.197224 1.222734 0.795403 -0.559248 0.233613 2
-0.294138 0.194844 1.207048 0.812301 -0.541099 0.217666 2
-0.291468 0.192647 1.189165 0.882702 -0.447396 0.143789 2
-0.289347 0.190694 1.166826 0.897944 -0.427763 0.103511 2
-0.288645 0.181996 1.120989 0.873196 -0.471188 0.124546 2
-0.285196 0.187092 1.120531 0.802851 -0.565979 0.187344 2
-0.282312 0.184743 1.104174 0.754589 -0.602284 0.260480 2
-0.275354 0.179219 1.081957 0.775679 -0.520469 0.356979 2
-0.272333 0.176701 1.069445 0.848629 -0.490578 0.197896 2
-0.273676 0.169743 1.049883 0.886648 -0.455010 0.082592 2
-0.269342 0.173848 1.016619 0.889371 -0.442084 0.116535 2
-0.266626 0.171529 0.999437 0.832508 -0.468196 0.296180 2
-0.259363 0.165791 0.977160 0.786835 -0.519014 0.333939 2
-0.256403 0.163335 0.962359 0.837526 -0.509980 0.196140 2
-0.254084 0.161336 0.942797 0.887214 -0.442639 0.130083 2
-0.250833 0.158223 0.893267 0.882397 -0.467888 0.049559 2
-0.249430 0.156850 0.865038 0.796365 -0.596969 0.097107 2
-0.247293 0.155125 0.841356 0.708937 -0.687530 0.157198 2
-0.244455 0.152684 0.824297 0.742418 -0.616647 0.261844 2
-0.241114 0.149983 0.811449 0.815735 -0.486210 0.313331 2
-0.241373 0.142277 0.800615 0.843318 -0.462663 0.273420 2
-0.234903 0.144948 0.784441 0.847046 -0.482601 0.222732 2
-0.224924 0.136555 0.708056 0.787644 -0.599878 0.140581 2
-0.219980 0.132268 0.670641 0.869135 -0.443451 0.218987 2
-0.212534 0.125722 0.614031 0.880617 -0.430827 0.197234 2
-0.209635 0.123296 0.599108 0.807097 -0.533827 0.252236 2
-0.206705 0.121266 0.582811 0.717335 -0.676319 0.167401 2
-0.204538 0.119389 0.562090 0.705519 -0.695001 0.138622 2
-0.202188 0.117238 0.541308 0.783424 -0.590201 0.194706 2
-0.198984 0.114583 0.524370 0.886732 -0.407319 0.218627 2
-0.196070 0.112233 0.505236 0.924700 -0.344125 0.162811 2
-0.193567 0.110097 0.485857 0.882410 -0.436479 0.175609 2
-0.190836 0.107793 0.470781 0.803922 -0.550841 0.224239 2
-0.188227 0.105702 0.454729 0.743134 -0.649211 0.162104 2
-0.186029 0.103688 0.434008 0.805183 -0.571769 0.157354 2
-0.183298 0.101430 0.415453 0.822334 -0.518626 0.234081 2
-0.180292 0.098897 0.401079 0.873995 -0.425979 0.233827 2
-0.180841 0.091313 0.388140 0.875019 -0.463011 0.141293 2
-0.174799 0.093861 0.333849 0.878109 -0.470713 0.085756 2
-0.173120 0.092229 0.312975 0.899756 -0.398848 0.177086 2
-0.170008 0.089467 0.297564 0.883315 -0.365764 0.293208 2
-0.165979 0.086690 0.285234 0.802886 -0.502509 0.320717 2
-0.162821 0.084386 0.269487 0.666044 -0.727487 0.164767 2
-0.160639 0.082585 0.247759 0.652553 -0.744658 0.140209 2
-0.158228 0.080128 0.228685 0.782957 -0.574387 0.238869 2
-0.155008 0.077458 0.213335 0.869874 -0.434491 0.233531 2
-0.147196 0.070775 0.162890 0.832468 -0.515489 0.203148 2
-0.144037 0.068303 0.145800 0.853552 -0.453250 0.256930 2
-0.140772 0.065724 0.129839 0.793712 -0.572935 0.204370 2
-0.138178 0.063588 0.110369 0.744548 -0.662111 0.085185 2
-0.137522 0.062657 0.077593 0.769499 -0.637233 0.042498 2
-0.136255 0.061314 0.049517 0.885834 -0.447415 0.122955 3
-0.136301 0.053456 0.039293 0.927627 -0.295202 0.228832 3
-0.130091 0.056340 0.020098 0.915865 -0.381163 0.126120 3
-0.129328 0.055333 -0.011824 0.870635 -0.491927 0.001189 3
-0.131296 0.056081 -0.064009 0.950561 -0.308767 -0.033125 3
-0.132715 0.056493 -0.112104 0.989755 -0.140979 -0.022560 3
-0.133310 0.056386 -0.154280 0.989574 -0.144003 -0.002507 3
-0.132730 0.055485 -0.187452 0.955263 -0.291391 0.050639 3
-0.131403 0.054097 -0.215101 0.966027 -0.254102 0.047159 3
-0.130487 0.052983 -0.245832 0.963442 -0.267601 0.012979 3
-0.130945 0.052769 -0.286726 0.918816 -0.393655 -0.028527 3
-0.133463 0.053883 -0.343092 0.860667 -0.508879 -0.017177 3
-0.132654 0.052846 -0.374617 0.918972 -0.389132 0.063778 3
-0.130884 0.051228 -0.399153 0.936810 -0.341000 0.078136 3
-0.129373 0.049702 -0.425367 0.955446 -0.283417 0.082444 3
-0.127542 0.048009 -0.449324 0.987362 -0.147808 0.057184 3
-0.126749 0.046986 -0.481062 0.997801 -0.065175 0.012043 3
0.274740 -0.231517 1.131914 0.834990 0.090660 0.542746 1
0.279013 -0.234615 1.125780 0.831495 0.054574 0.552845 1
-0.153711 0.298863 1.106249 0.180294 -0.969549 0.165738 2
-0.094293 0.399174 1.630419 0.600137 -0.657337 0.455789 1
-0.088968 0.397603 1.619616 0.645123 -0.654920 0.393568 2
-0.090799 0.404439 1.631151 0.784614 -0.404788 0.469603 1
-0.154367 0.495534 1.743212 0.883022 -0.087044 0.461189 1
-0.389185 0.669636 2.120562 0.804715 -0.168212 0.569332 1
-0.560434 0.399159 2.346117 0.838129 -0.076319 0.540107 1
-0.558374 0.391682 2.341967 0.868103 -0.066385 0.491926 1
-0.530878 0.378392 2.291796 0.800175 -0.110645 0.589472 1
-0.518305 0.368748 2.273516 0.792791 -0.135925 0.594144 1
-0.489160 0.346623 2.223619 0.810276 -0.108252 0.575964 1
-0.481012 0.340337 2.209215 0.830993 -0.099626 0.547289 1
-0.476847 0.337132 2.202929 0.781232 -0.098784 0.616376 1
-0.472681 0.333882 2.197557 0.730170 -0.115936 0.673357 1
-0.471887 0.325368 2.194689 0.748257 -0.141473 0.648149 1
-0.459879 0.324040 2.179796 0.818572 -0.184695 0.543900 1
-0.455606 0.320912 2.172258 0.841459 -0.099087 0.531158 1
-0.451456 0.317799 2.164843 0.847567 -0.049867 0.528341 1
-0.446588 0.306065 2.156237 0.824754 -0.070695 0.561055 1
-0.443308 0.311345 2.152727 0.746236 -0.117985 0.655143 1
-0.434976 0.304768 2.142138 0.788286 -0.165401 0.592662 1
-0.431284 0.301976 2.133471 0.923941 -0.276246 0.264615 1
-0.428614 0.299763 2.114336 0.949933 -0.292226 0.110597 2
-0.426752 0.298039 2.089128 0.959531 -0.262847 0.101058 2
-0.424524 0.296117 2.067461 0.964464 -0.224874 0.138713 2
-0.422006 0.293996 2.048174 0.952786 -0.265179 0.147917 2
-0.419763 0.292119 2.026445 0.929503 -0.349867 0.116692 2
-0.417719 0.290303 2.003710 0.958729 -0.231663 0.164836 2
-0.414713 0.287816 1.988634 0.967142 -0.018636 0.253554 2
-0.411188 0.285039 1.977343 0.954067 -0.146626 0.261259 2
-0.408197 0.282597 1.962023 0.921641 -0.342634 0.182153 2
-0.405573 0.280415 1.943865 0.794727 -0.583495 0.167160 2
-0.403040 0.278279 1.925066 0.721973 -0.676036 0.147415 2
-0.400919 0.276402 1.903215 0.764119 -0.626969 0.151764 2
-0.398264 0.274174 1.885363 0.782600 -0.568098 0.254561 2
-0.394922 0.271519 1.872759 0.789012 -0.569718 0.229959 2
-0.392343 0.269353 1.854631 0.815689 -0.557379 0.154857 2
-0.390299 0.267476 1.832354 0.848629 -0.498477 0.177060 2
-0.387232 0.264989 1.818804 0.872498 -0.351106 0.339811 2
-0.383753 0.262288 1.809984 0.896269 -0.339067 0.285895 2
-0.381250 0.260289 1.794268 0.845189 -0.525842 0.095633 2
-0.377542 0.256505 1.746538 0.770020 -0.535440 0.346949 2
-0.373087 0.253224 1.737780 0.716008 -0.399047 0.572795 2
-0.368921 0.250096 1.730486 0.809282 -0.368450 0.457501 2
-0.365534 0.247365 1.719194 0.896221 -0.382054 0.225437 2
-0.363474 0.245320 1.700975 0.912442 -0.396932 0.099473 2
-0.359995 0.241963 1.650805 0.920039 -0.378077 0.102889 2
-0.357447 0.240102 1.628923 0.892633 -0.419173 0.165834 2
-0.354608 0.237828 1.610826 0.825645 -0.517547 0.224621 2
-0.348764 0.232793 1.581102 0.881822 -0.406152 0.239647 2
-0.346033 0.230412 1.566301 0.926528 -0.316857 0.202850 2
-0.343393 0.228108 1.550585 0.931885 -0.297605 0.207415 2
-0.340631 0.225880 1.534472 0.896891 -0.384171 0.219086 2
-0.334299 0.228535 1.517565 0.914507 -0.291223 0.280831 2
-0.329523 0.216832 1.461351 0.933203 -0.312467 0.177472 2
-0.326609 0.214467 1.445177 0.926207 -0.330875 0.180729 2
-0.324137 0.212376 1.424883 0.896804 -0.438242 0.060722 2
-0.322092 0.210087 1.364641 0.912561 -0.402307 0.073360 2
-0.319849 0.208150 1.343737 0.945415 -0.293162 0.142291 2
-0.317362 0.206059 1.323870 0.961005 -0.230368 0.152972 2
-0.314722 0.203862 1.305071 0.940222 -0.273832 0.202482 2
-0.311487 0.201298 1.291430 0.882257 -0.349281 0.315636 2
-0.308069 0.198582 1.279436 0.872083 -0.389948 0.295654 2
-0.308344 0.190800 1.267870 0.896880 -0.409250 0.167689 2
-0.303018 0.194279 1.242266 0.886718 -0.441574 0.136909 2
-0.300669 0.192204 1.222521 0.810935 -0.552461 0.192799 2
-0.297815 0.189900 1.206499 0.748657 -0.614050 0.249908 2
-0.294718 0.187382 1.192339 0.865644 -0.452811 0.213596 2
-0.292246 0.185231 1.172533 0.922609 -0.368003 0.115614 2
-0.290476 0.183659 1.146196 0.937709 -0.339003 0.076022 2
-0.285959 0.179723 1.103289 0.792374 -0.540881 0.282120 2
-0.282480 0.176961 1.091661 0.759164 -0.520903 0.390295 2
-0.278971 0.174184 1.082109 0.779812 -0.506286 0.368195 2
-0.275827 0.171590 1.070635 0.837544 -0.502507 0.214493 2
-0.272348 0.168355 1.022692 0.910147 -0.401889 0.100590 2
-0.269998 0.166310 1.002153 0.876845 -0.432516 0.209934 2
-0.266596 0.163609 0.988634 0.782355 -0.518472 0.345119 2
-0.266703 0.155781 0.976580 0.784812 -0.539695 0.304630 2
-0.260050 0.158299 0.961840 0.787516 -0.572004 0.229412 2
-0.257486 0.156148 0.944170 0.841103 -0.512035 0.174257 2
-0.255258 0.154072 0.925341 0.892025 -0.442532 0.091957 2
-0.253214 0.151875 0.864061 0.827653 -0.556626 0.071811 2
-0.251428 0.150212 0.837999 0.766594 -0.621855 0.160095 2
-0.248178 0.147649 0.823900 0.789465 -0.523960 0.319703 2
-0.244654 0.144871 0.813219 0.830205 -0.428617 0.356435 2
-0.241938 0.134724 0.787737 0.844806 -0.493075 0.207797 2
-0.235773 0.137578 0.768786 0.846467 -0.505635 0.166815 2
-0.232538 0.126683 0.707689 0.797736 -0.585780 0.143110 2
-0.226358 0.129582 0.687639 0.799352 -0.565386 0.203407 2
-0.223352 0.127003 0.672930 0.827127 -0.489294 0.276502 2
-0.220331 0.124409 0.658434 0.892799 -0.404091 0.199048 2
-0.220896 0.116933 0.642382 0.902040 -0.408477 0.139533 2
-0.215586 0.120366 0.617327 0.893500 -0.423865 0.148315 2
-0.213144 0.118245 0.599260 0.773960 -0.613158 0.158187 2
-0.208612 0.114506 0.558184 0.745493 -0.646316 0.162838 2
-0.205789 0.112141 0.542284 0.828222 -0.496190 0.260468 2
-0.202387 0.109425 0.529375 0.898856 -0.314308 0.305398 2
-0.199060 0.106724 0.514116 0.947928 -0.264098 0.178003 2
-0.196604 0.104665 0.492327 0.945537 -0.297659 0.131751 2
-0.194513 0.102803 0.470903 0.839261 -0.527240 0.132888 2
-0.189905 0.098851 0.432268 0.734072 -0.654006 0.182797 2
-0.186884 0.096303 0.415941 0.771205 -0.576100 0.270836 2
-0.183649 0.093693 0.403185 0.807270 -0.525154 0.269313 2
-0.179193 0.089833 0.364672 0.858789 -0.506197 0.079033 2
-0.176187 0.086491 0.317858 0.919091 -0.361818 0.156075 2
-0.173319 0.083989 0.301836 0.899453 -0.353002 0.257630 2
-0.169672 0.081868 0.286577 0.786716 -0.585458 0.195745 2
-0.167185 0.079961 0.264513 0.663350 -0.738011 0.123717 2
-0.165048 0.077992 0.242571 0.673508 -0.713239 0.194108 2
-0.161936 0.074986 0.229296 0.776450 -0.523346 0.351047 2
-0.158472 0.072301 0.217241 0.851353 -0.466191 0.240550 2
-0.155817 0.070180 0.198656 0.816547 -0.556935 0.151899 2
-0.153543 0.068303 0.178545 0.746278 -0.640419 0.181472 2
-0.150705 0.066045 0.163042 0.749131 -0.610185 0.257831 2
-0.147455 0.063191 0.148088 0.812616 -0.530510 0.241276 2
-0.141840 0.058568 0.110918 0.892811 -0.443081 0.081038 2
-0.139246 0.055882 0.054857 0.961337 -0.257835 0.096711 2
-0.133417 0.051106 0.023088 0.889413 -0.444583 0.106258 3
-0.133493 0.050130 -0.052656 0.903568 -0.428338 0.009534 3
-0.132700 0.049046 -0.084150 0.991717 -0.128229 -0.007427 3
-0.134195 0.049000 -0.170423 0.994265 -0.106874 0.003958 3
-0.132608 0.047490 -0.196211 0.995674 0.070985 0.059948 3
-0.131388 0.046178 -0.224684 0.987658 -0.156626 0.000226 3
-0.132349 0.046284 -0.269514 0.963956 -0.265207 -0.021302 3
-0.135568 0.047337 -0.368574 0.988666 -0.118627 0.092022 3
-0.133631 0.045567 -0.391676 0.947644 -0.312915 0.063683 3
-0.132242 0.044179 -0.418989 0.912635 -0.397172 0.096699 3
-0.130014 0.042226 -0.440046 0.945986 -0.295067 0.134332 3
-0.127771 0.040257 -0.460890 0.985940 -0.146293 0.080753 3
0.259634 -0.236461 1.154345 0.769959 0.115560 0.627542 1
0.267660 -0.233577 1.143450 0.828146 0.047798 0.558471 1
0.267218 -0.225765 1.143114 0.814593 0.093480 0.572451 1
0.054648 0.194691 -0.084944 0.000220 -0.998902 0.046839 3
-0.120661 0.289326 0.989458 -0.001079 -0.982841 0.184451 2
-0.117319 0.292577 1.001574 0.106676 -0.949266 0.295827 2
-0.112390 0.289891 0.994524 -0.041728 -0.957906 0.284033 2
-0.634333 0.470769 2.478472 0.795711 -0.342719 0.499387 1
-0.629038 0.468877 2.468737 0.840796 -0.323653 0.433949 1
-0.553324 0.380192 2.330889 0.875684 -0.078588 0.476448 1
-0.546442 0.382558 2.318193 0.873811 -0.098128 0.476261 1
-0.542566 0.379414 2.310595 0.861175 -0.094965 0.499359 1
-0.538416 0.376179 2.303179 0.851081 -0.041190 0.523417 1
-0.529718 0.369893 2.289171 0.847117 -0.104032 0.521124 1
-0.525614 0.366765 2.282396 0.780459 -0.173114 0.600763 1
-0.516474 0.351872 2.266375 0.774090 -0.182472 0.606208 1
-0.508783 0.353932 2.255663 0.856353 -0.096528 0.507289 1
-0.500589 0.347722 2.240129 0.853768 -0.097819 0.511381 1
-0.496485 0.344563 2.233446 0.822436 -0.034303 0.567823 1
-0.492334 0.341298 2.227373 0.828280 -0.051617 0.557932 1
-0.484247 0.334996 2.213335 0.857436 -0.084403 0.507621 1
-0.463175 0.318745 2.183275 0.787378 -0.066712 0.612850 1
-0.458811 0.315556 2.176653 0.840614 -0.001366 0.541633 1
-0.450556 0.309178 2.163225 0.863172 -0.009288 0.504824 1
-0.434381 0.296376 2.137835 0.916476 -0.263181 0.301345 1
-0.431391 0.294072 2.121813 0.939522 -0.313329 0.138287 1
-0.430109 0.284962 2.081560 0.945241 -0.302487 0.122561 2
-0.427240 0.290532 2.075060 0.944586 -0.297467 0.138821 2
-0.420099 0.284413 2.013903 0.969851 -0.201537 0.137007 2
-0.413584 0.279240 1.987108 0.979327 -0.025278 0.200696 2
-0.410852 0.276952 1.969805 0.976400 -0.178500 0.121575 2
-0.409098 0.275304 1.945299 0.896510 -0.434846 0.084729 2
-0.407266 0.273595 1.921373 0.742784 -0.656190 0.132989 2
-0.405023 0.271657 1.900408 0.721873 -0.669538 0.174980 2
-0.402033 0.269200 1.885118 0.763486 -0.576586 0.290927 2
-0.396204 0.264409 1.853838 0.782911 -0.600646 0.162095 2
-0.393854 0.262395 1.833788 0.835474 -0.509776 0.205209 2
-0.390589 0.259709 1.821795 0.875904 -0.302142 0.376168 2
-0.387110 0.256963 1.813341 0.883618 -0.379669 0.273990 2
-0.384851 0.255131 1.796434 0.837553 -0.540014 0.083007 2
-0.384104 0.254063 1.766710 0.813544 -0.572831 0.100052 2
-0.381098 0.251210 1.746782 0.800921 -0.517323 0.301501 2
-0.380258 0.243016 1.739733 0.720515 -0.364652 0.589819 2
-0.372492 0.245000 1.732531 0.742042 -0.373025 0.556979 2
-0.368784 0.242116 1.723528 0.873290 -0.393934 0.286671 2
-0.366495 0.239949 1.707170 0.901085 -0.418778 0.112567 2
-0.363031 0.236653 1.656359 0.877779 -0.469999 0.092760 2
-0.360742 0.234959 1.632402 0.857828 -0.495454 0.136591 2
-0.358271 0.232823 1.611406 0.823259 -0.526727 0.211668 2
-0.355142 0.230275 1.596910 0.833121 -0.479494 0.275672 2
-0.351923 0.227544 1.584520 0.883388 -0.363913 0.295286 2
-0.349008 0.225072 1.571032 0.908801 -0.358090 0.214133 2
-0.343881 0.220891 1.537310 0.825902 -0.527287 0.199636 2
-0.339411 0.218434 1.515520 0.809251 -0.547936 0.211848 2
-0.335459 0.213795 1.487291 0.907233 -0.383574 0.172627 2
-0.327005 0.206975 1.431200 0.919423 -0.384852 0.080931 2
-0.325952 0.205800 1.401171 0.910097 -0.412672 0.037753 2
-0.325098 0.204686 1.369707 0.895300 -0.438489 0.078520 2
-0.322855 0.202687 1.348680 0.883250 -0.441105 0.159046 2
-0.320169 0.200459 1.330614 0.908307 -0.381367 0.171863 2
-0.317636 0.198369 1.310961 0.904358 -0.386559 0.180853 2
-0.314813 0.196034 1.294451 0.874466 -0.404716 0.267421 2
-0.311441 0.193349 1.282000 0.854904 -0.419934 0.304622 2
-0.306147 0.188924 1.246630 0.874130 -0.474823 0.102173 2
-0.304331 0.187245 1.222368 0.802771 -0.576419 0.152646 2
-0.298258 0.182332 1.193254 0.748585 -0.555589 0.361859 2
-0.295023 0.179631 1.179888 0.930898 -0.331270 0.153911 2
-0.291681 0.176549 1.126268 0.934311 -0.345588 0.087363 2
-0.289408 0.174596 1.104692 0.889502 -0.403404 0.214595 2
-0.286005 0.171849 1.092760 0.838214 -0.405027 0.365172 2
-0.282541 0.169087 1.082933 0.816114 -0.435840 0.379476 2
-0.279337 0.166463 1.071642 0.837745 -0.474745 0.269815 2
-0.276850 0.164342 1.054094 0.876373 -0.463367 0.131379 2
-0.275278 0.162801 1.028948 0.886090 -0.454934 0.088766 2
-0.273294 0.161030 1.005449 0.861448 -0.480459 0.164521 2
-0.270212 0.158559 0.989122 0.796795 -0.527539 0.294653 2
-0.263590 0.153233 0.962236 0.857884 -0.460185 0.228617 2
-0.260874 0.150960 0.945849 0.892152 -0.411010 0.187443 2
-0.258402 0.148717 0.928423 0.886278 -0.444140 0.131343 2
-0.259897 0.141865 0.907763 0.897125 -0.438430 0.054275 2
-0.256494 0.146535 0.866839 0.895662 -0.442974 0.039547 2
-0.254938 0.145116 0.838305 0.875906 -0.457222 0.154067 2
-0.251734 0.142506 0.824877 0.831571 -0.421988 0.361131 2
-0.251642 0.134465 0.817492 0.851183 -0.370601 0.371676 2
-0.244882 0.137074 0.803362 0.867864 -0.411630 0.278160 2
-0.242838 0.127263 0.770830 0.843529 -0.510758 0.166089 2
-0.236795 0.130360 0.750994 0.835712 -0.525539 0.159355 2
-0.233774 0.119405 0.686876 0.811959 -0.540209 0.221127 2
-0.226801 0.121800 0.673723 0.799363 -0.500819 0.331962 2
-0.223520 0.119084 0.661181 0.866513 -0.441503 0.232874 2
-0.216638 0.113225 0.599627 0.858032 -0.498798 0.122400 2
-0.214716 0.111485 0.576799 0.818897 -0.558677 0.131483 2
-0.212320 0.109486 0.557634 0.840613 -0.500470 0.207124 2
-0.209314 0.107014 0.543718 0.852365 -0.402132 0.334312 2
-0.202188 0.101292 0.522417 0.891640 -0.337532 0.301746 2
-0.199350 0.099065 0.502459 0.919302 -0.376714 0.113885 2
-0.197992 0.097676 0.473284 0.832298 -0.550062 0.068646 2
-0.196360 0.096120 0.448839 0.744218 -0.652776 0.141506 2
-0.193827 0.093938 0.430285 0.755974 -0.615437 0.223025 2
-0.190531 0.091252 0.415789 0.787036 -0.536489 0.304555 2
-0.184427 0.086323 0.388048 0.773958 -0.618787 0.134507 2
-0.181146 0.083012 0.341448 0.852495 -0.510860 0.110787 2
-0.178949 0.080647 0.323198 0.926492 -0.332328 0.176550 2
-0.176294 0.078603 0.306047 0.898692 -0.396353 0.187770 2
-0.173426 0.076955 0.286455 0.761603 -0.636278 0.122932 2
-0.171808 0.075215 0.259020 0.734804 -0.667400 0.120999 2
-0.168970 0.072728 0.239367 0.775024 -0.571507 0.269661 2
-0.165369 0.069859 0.229876 0.792686 -0.448734 0.412658 2
-0.161936 0.067235 0.220110 0.830920 -0.499451 0.245195 2
-0.159464 0.065266 0.200548 0.807861 -0.573877 0.134259 2
-0.157465 0.063435 0.177202 0.782778 -0.601455 0.159723 2
-0.151148 0.058247 0.148607 0.776229 -0.576355 0.255507 2
-0.148050 0.055699 0.131640 0.792272 -0.571291 0.214317 2
-0.145273 0.053380 0.113604 0.859587 -0.477615 0.181642 2
-0.142923 0.051366 0.093615 0.952067 -0.293794 0.085165 2
-0.143579 0.043828 0.079515 0.960799 -0.249470 0.120955 2
-0.138941 0.047764 0.047350 0.971553 -0.185850 0.146783 2
-0.136698 0.045811 0.026476 0.891137 -0.450670 0.052646 3
-0.136530 0.045201 -0.009840 0.854391 -0.519615 0.004043 3
-0.136499 0.044652 -0.047132 0.914605 -0.401777 0.045533 3
-0.134287 0.042699 -0.068220 0.964696 -0.256031 0.061727 3
-0.133921 0.041951 -0.103041 0.954906 -0.296701 -0.011103 3
-0.135233 0.042287 -0.150404 0.975542 -0.215910 0.041249 3
-0.132349 0.039921 -0.166517 0.959503 0.246982 0.135477 3
-0.136576 0.040593 -0.348280 0.992560 -0.121753 -0.000939 3
-0.136179 0.039830 -0.382887 0.974776 -0.223076 0.007012 3
-0.135355 0.038777 -0.414320 0.924604 -0.374017 0.072243 3
-0.133188 0.036870 -0.435835 0.921648 -0.342727 0.181941 3
-0.130197 0.034459 -0.451246 0.957740 -0.222916 0.181776 3
0.247595 -0.230525 1.163408 0.469610 0.344328 0.812960 1
0.251806 -0.232753 1.161150 0.621798 0.271503 0.734611 1
0.248312 -0.221004 1.159380 0.526966 0.447192 0.722721 1
0.257635 -0.225917 1.153826 0.643811 0.359433 0.675511 1
0.255865 -0.234279 1.157732 0.689196 0.196488 0.697425 1
0.259741 -0.227916 1.152575 0.666844 0.217739 0.712677 1
0.264258 -0.237819 1.148485 0.827208 0.016463 0.561655 1
0.267889 -0.241008 1.143114 0.837256 -0.026329 0.546176 1
0.271612 -0.243709 1.136980 0.803188 -0.065108 0.592157 1
0.281881 -0.246898 1.124743 0.785623 0.061339 0.615657 1
-0.025385 0.176747 -0.386030 0.278635 -0.947841 0.154790 3
-0.028742 0.174031 -0.401503 0.230877 -0.970620 0.067762 3
-0.020151 0.176686 -0.406446 0.505440 -0.862597 0.021394 3
-0.133249 0.222096 0.627092 0.594885 -0.789886 0.148970 2
-0.619409 0.305424 2.421282 0.842412 -0.062880 0.535153 1
-0.125376 0.330510 1.260454 0.346239 -0.909502 0.230053 2
-0.147898 0.340047 1.332140 0.189929 -0.901772 0.388245 2
-0.175196 0.383412 1.585680 0.089706 -0.974927 0.203643 2
-0.178598 0.380208 1.573595 0.189964 -0.962157 0.195365 2
-0.169962 0.382146 1.574633 0.192815 -0.969986 0.148154 2
0.128439 0.313634 1.310778 0.340980 -0.610814 0.714590 1
-0.109354 0.485997 1.667009 0.821377 -0.141232 0.552624 1
-0.103968 0.483906 1.658892 0.799488 -0.135971 0.585090 1
-0.182657 0.640843 1.793108 0.789448 -0.064248 0.610446 1
-0.179102 0.646580 1.790178 0.736885 -0.154033 0.658235 1
-0.561319 0.386372 2.345903 0.826648 -0.071613 0.558144 1
-0.560205 0.377888 2.342821 0.854805 -0.119835 0.504923 1
-0.551782 0.363103 2.324541 0.862532 -0.066559 0.501606 1
-0.528269 0.353123 2.281420 0.814326 -0.162960 0.557061 1
-0.512125 0.348653 2.259905 0.796870 -0.130041 0.589989 1
-0.507944 0.345463 2.252550 0.848816 -0.124294 0.513870 1
-0.507013 0.337041 2.248796 0.840251 -0.084583 0.535559 1
-0.495417 0.335957 2.231920 0.844990 0.022368 0.534313 1
-0.491297 0.332768 2.225328 0.876445 -0.023056 0.480949 1
-0.482553 0.317998 2.207659 0.853429 -0.071262 0.516315 1
-0.479410 0.323323 2.203722 0.807157 -0.095357 0.582584 1
-0.475229 0.320058 2.197832 0.771837 -0.054616 0.633471 1
-0.462061 0.310170 2.181170 0.836176 0.005385 0.548435 1
-0.453668 0.303731 2.168840 0.867644 -0.002617 0.497180 1
-0.449762 0.300664 2.160784 0.875364 -0.078423 0.477062 1
-0.445734 0.297536 2.153399 0.808505 -0.095802 0.580639 1
-0.441477 0.294194 2.147783 0.768084 -0.127038 0.627621 1
-0.437433 0.290990 2.141283 0.879057 -0.223406 0.421127 1
-0.434168 0.288533 2.128008 0.937131 -0.314847 0.150524 2
-0.430170 0.277135 2.070940 0.952237 -0.258292 0.162878 2
-0.424921 0.280629 2.043840 0.956103 -0.259804 0.135529 2
-0.422586 0.278645 2.023241 0.966131 -0.169183 0.194855 2
-0.419428 0.276097 2.009050 0.958484 -0.007946 0.285035 2
-0.415766 0.273228 1.998674 0.967490 0.035799 0.250363 2
-0.412882 0.270879 1.982439 0.978595 -0.179687 0.100325 2
-0.412012 0.269795 1.951372 0.933491 -0.357626 0.026425 2
-0.411203 0.268788 1.919695 0.852514 -0.515028 0.089250 2
-0.408914 0.266759 1.899279 0.802512 -0.554614 0.219949 2
-0.402429 0.261571 1.872515 0.827020 -0.497409 0.261959 2
-0.399881 0.259404 1.854174 0.845045 -0.504401 0.177421 2
-0.397165 0.257146 1.836718 0.906096 -0.329458 0.265418 2
-0.393762 0.254369 1.825853 0.896875 -0.218534 0.384523 2
-0.390390 0.251561 1.817125 0.892149 -0.385588 0.235355 2
-0.388513 0.249974 1.797808 0.858869 -0.506203 0.078119 2
-0.387735 0.248555 1.766100 0.859208 -0.501524 0.101165 2
-0.384272 0.246144 1.747515 0.845821 -0.403433 0.349039 2
-0.379709 0.234807 1.734636 0.748078 -0.361850 0.556276 2
-0.372324 0.237172 1.725756 0.808434 -0.454463 0.374030 2
-0.369745 0.234685 1.712084 0.872142 -0.464366 0.154056 2
-0.367884 0.233021 1.686571 0.869042 -0.487671 0.083329 2
-0.364313 0.229909 1.633959 0.846455 -0.519943 0.114778 2
-0.361933 0.227833 1.612719 0.849132 -0.486632 0.205338 2
-0.358698 0.225133 1.599169 0.864752 -0.388369 0.318392 2
-0.355234 0.222279 1.587908 0.875195 -0.362101 0.320805 2
-0.352152 0.219792 1.575182 0.897708 -0.371180 0.237374 2
-0.349588 0.217580 1.559221 0.886717 -0.430223 0.169238 2
-0.347666 0.213536 1.532396 0.827809 -0.535093 0.168544 2
-0.335855 0.207509 1.477495 0.922019 -0.330066 0.202329 2
-0.330103 0.201466 1.437395 0.907122 -0.401355 0.126666 2
-0.331446 0.194539 1.416674 0.906737 -0.419762 0.040357 2
-0.328195 0.199315 1.373919 0.885541 -0.462116 0.047593 2
-0.326288 0.197545 1.350084 0.846856 -0.508856 0.154598 2
-0.323450 0.195195 1.333452 0.845590 -0.494637 0.200778 2
-0.320856 0.193074 1.314623 0.850355 -0.497537 0.171329 2
-0.318231 0.190846 1.296556 0.825009 -0.511420 0.240439 2
-0.314966 0.188252 1.283342 0.797565 -0.500080 0.337357 2
-0.311579 0.185536 1.271166 0.856201 -0.462587 0.230072 2
-0.312616 0.178319 1.253740 0.868572 -0.485739 0.098188 2
-0.307978 0.182179 1.222979 0.839585 -0.534121 0.099054 2
-0.305628 0.180196 1.203020 0.741497 -0.617241 0.263052 2
-0.305857 0.172459 1.192278 0.709285 -0.542969 0.449555 2
-0.298288 0.174412 1.183611 0.833457 -0.447066 0.324779 2
-0.295542 0.172154 1.166124 0.940021 -0.326365 0.099233 2
-0.296900 0.165120 1.146227 0.930193 -0.360331 0.070019 2
-0.292536 0.169270 1.109728 0.942700 -0.301819 0.142205 2
-0.289240 0.166691 1.095903 0.913535 -0.257005 0.315282 2
-0.285883 0.163869 1.085436 0.884651 -0.314276 0.344417 2
-0.282678 0.161229 1.073626 0.893760 -0.370063 0.253469 2
-0.278498 0.157506 1.032305 0.848585 -0.522621 0.082281 2
-0.276804 0.155934 1.006609 0.813575 -0.564016 0.141359 2
-0.273935 0.153584 0.988878 0.770035 -0.582130 0.261094 2
-0.270365 0.150777 0.976976 0.765332 -0.529357 0.366125 2
-0.266947 0.147999 0.965075 0.868916 -0.395596 0.297469 2
-0.263880 0.145573 0.950670 0.921369 -0.335296 0.196610 2
-0.261392 0.143422 0.932512 0.913542 -0.385928 0.128454 2
-0.259119 0.140813 0.875231 0.939108 -0.340775 0.044149 2
-0.257776 0.139546 0.844744 0.947424 -0.306842 0.090755 2
-0.255060 0.137273 0.827440 0.906748 -0.322219 0.271997 2
-0.245325 0.129368 0.790453 0.882010 -0.427070 0.199172 2
-0.243814 0.120076 0.752825 0.846254 -0.504540 0.171153 2
-0.238031 0.123234 0.733049 0.845167 -0.517156 0.135064 2
-0.236139 0.121510 0.709032 0.856828 -0.502248 0.116583 2
-0.230295 0.116719 0.673510 0.786213 -0.514906 0.341674 2
-0.226831 0.113927 0.662645 0.828808 -0.477066 0.292378 2
-0.223993 0.111623 0.646257 0.865838 -0.481482 0.136016 2
-0.223459 0.102849 0.603106 0.850738 -0.511475 0.120985 2
-0.218088 0.106282 0.579424 0.878823 -0.453102 0.149564 2
-0.215677 0.104130 0.560656 0.904971 -0.376653 0.197890 2
-0.212732 0.101659 0.545916 0.868330 -0.376773 0.322560 2
-0.212519 0.093495 0.537340 0.854743 -0.366653 0.367396 2
-0.205530 0.095875 0.525713 0.851369 -0.443086 0.280794 2
-0.202539 0.093678 0.507372 0.831347 -0.547019 0.098150 2
-0.201593 0.092610 0.474840 0.792704 -0.607102 0.055197 2
-0.200250 0.091206 0.447313 0.783589 -0.609836 0.118698 2
-0.197504 0.088841 0.430254 0.813012 -0.515275 0.271114 2
-0.190821 0.083592 0.404100 0.799838 -0.538088 0.265932 2
-0.188455 0.081547 0.384691 0.747744 -0.651566 0.127833 2
-0.186701 0.079854 0.360918 0.767805 -0.629116 0.121195 2
-0.184320 0.077687 0.343126 0.865229 -0.458168 0.203618 2
-0.181726 0.075352 0.328356 0.897980 -0.392987 0.197972 2
-0.179392 0.073476 0.309038 0.807338 -0.579420 0.111709 2
-0.175531 0.070149 0.258806 0.819381 -0.555144 0.142932 2
-0.172327 0.067540 0.240709 0.874314 -0.385443 0.294973 2
-0.168802 0.064763 0.231188 0.821001 -0.406198 0.401200 2
-0.165521 0.062245 0.221422 0.808975 -0.545052 0.220179 2
-0.170679 0.050435 0.203173 0.807689 -0.575572 0.127891 2
-0.162042 0.050923 0.160112 0.750423 -0.602384 0.272028 2
-0.154886 0.053197 0.148119 0.753239 -0.607505 0.252127 2
-0.148950 0.048360 0.114458 0.767934 -0.598239 0.228883 2
