0.553413 -0.533144 0.589684 0.832707 -0.151164 0.532680 1
0.557655 -0.535722 0.581994 0.827518 -0.152461 0.540341 1
0.561501 -0.540941 0.573967 0.788685 -0.108410 0.605163 1
0.572868 -0.546892 0.560082 0.726111 -0.136716 0.673849 1
-0.394051 0.630736 1.939812 0.745075 0.032404 0.666193 1
-0.526543 0.364744 2.109734 0.751994 -0.000749 0.659170 1
-0.518349 0.357695 2.100396 0.803224 -0.067442 0.591847 1
-0.510429 0.350783 2.088524 0.806028 -0.058101 0.589019 1
-0.499412 0.348707 2.072320 0.868586 0.066208 0.491096 1
-0.495003 0.345351 2.065545 0.831761 0.172447 0.527670 1
-0.490318 0.342009 2.060174 0.781394 0.223271 0.582729 1
-0.485725 0.338499 2.055962 0.764340 0.184606 0.617823 1
-0.481407 0.334975 2.051079 0.809307 0.074920 0.582588 1
-0.473259 0.328001 2.039971 0.807018 0.011001 0.590424 1
-0.464302 0.312544 2.025261 0.792247 -0.136620 0.594709 1
-0.456612 0.314177 2.016320 0.745020 -0.103180 0.659014 1
-0.447929 0.307127 2.006371 0.737359 -0.035854 0.674548 1
-0.443779 0.303587 2.001397 0.786274 0.027054 0.617285 1
-0.439674 0.300078 1.996026 0.824176 0.050755 0.564054 1
-0.431282 0.293257 1.984002 0.828998 0.037195 0.558013 1
-0.410683 0.275725 1.956749 0.699966 -0.051470 0.712319 1
-0.402290 0.259840 1.947197 0.833767 -0.118495 0.539252 1
-0.399071 0.256727 1.940056 0.922110 -0.217034 0.320327 1
-0.389793 0.256895 1.900414 0.920075 -0.355667 0.164206 2
-0.387199 0.254698 1.879906 0.895591 -0.403773 0.186773 2
-0.384636 0.252226 1.864647 0.892955 -0.373675 0.250993 2
-0.381737 0.249495 1.853112 0.912720 -0.281659 0.295990 2
-0.378624 0.246611 1.839226 0.949206 -0.233058 0.211407 2
-0.375740 0.236037 1.812981 0.947312 -0.228914 0.224049 2
-0.372810 0.241576 1.805169 0.949397 -0.165843 0.266723 2
-0.369469 0.238615 1.793664 0.946550 -0.157773 0.281336 2
-0.366432 0.235899 1.779839 0.930049 -0.345396 0.125338 2
-0.365089 0.234328 1.753350 0.899497 -0.434940 0.041618 2
-0.364616 0.233366 1.720147 0.919775 -0.386454 0.068313 2
-0.362328 0.231169 1.700799 0.926185 -0.303177 0.224200 2
-0.352531 0.222456 1.665917 0.859381 -0.446700 0.248845 2
-0.348366 0.218458 1.619072 0.818409 -0.556334 0.143872 2
-0.345406 0.216154 1.601098 0.805321 -0.529216 0.267187 2
-0.342186 0.213057 1.590722 0.837155 -0.406135 0.366369 2
-0.339241 0.210280 1.578698 0.928202 -0.296120 0.225285 2
-0.332024 0.203276 1.525261 0.910787 -0.388512 0.139736 2
-0.328514 0.199568 1.478325 0.932668 -0.341896 0.115053 2
-0.326027 0.197218 1.460289 0.950972 -0.220119 0.217255 2
-0.320671 0.192198 1.430047 0.922620 -0.382061 0.052930 2
-0.320702 0.191527 1.393090 0.914598 -0.403662 0.023823 2
-0.319359 0.189955 1.365685 0.926253 -0.353806 0.129912 2
-0.313087 0.184172 1.340874 0.917116 -0.284100 0.279616 2
-0.309914 0.181486 1.327172 0.852276 -0.431148 0.296204 2
-0.306587 0.178694 1.314873 0.717923 -0.581795 0.382231 2
-0.299950 0.172926 1.295037 0.706466 -0.623453 0.334982 2
-0.296974 0.170241 1.279809 0.843780 -0.501293 0.191680 2
-0.291771 0.165327 1.241173 0.915967 -0.343364 0.207621 2
-0.288841 0.162703 1.226464 0.972011 -0.131496 0.194687 2
-0.286323 0.160307 1.208733 0.989918 -0.087250 0.111579 2
-0.284492 0.158430 1.185845 0.994212 -0.066149 0.084660 2
-0.282402 0.156325 1.164971 0.987449 -0.088680 0.130693 2
-0.277763 0.151854 1.126519 0.971328 -0.201487 0.126192 2
-0.275810 0.149870 1.104516 0.974979 -0.189630 0.116002 2
-0.273521 0.147688 1.084954 0.960478 -0.216582 0.174855 2
-0.270622 0.145018 1.070275 0.923395 -0.272427 0.270417 2
-0.267342 0.142119 1.058403 0.897583 -0.333253 0.288597 2
-0.264442 0.139479 1.043755 0.936227 -0.293572 0.193118 2
-0.261940 0.137099 1.026024 0.950944 -0.238200 0.197399 2
-0.258903 0.134337 1.012566 0.950710 -0.094279 0.295401 2
-0.255409 0.131224 1.002923 0.933467 -0.098544 0.344861 2
-0.252068 0.128325 0.991478 0.953899 -0.195289 0.227903 2
-0.249550 0.125975 0.973137 0.964986 -0.222888 0.138287 2
-0.250023 0.118162 0.962334 0.967799 -0.192137 0.162629 2
-0.244575 0.121306 0.936425 0.973511 -0.103042 0.204106 2
-0.238350 0.115843 0.909050 0.941834 -0.165978 0.292232 2
-0.238060 0.107435 0.904412 0.948640 -0.113857 0.295160 2
-0.225502 0.104353 0.859551 0.947171 -0.192078 0.256853 2
-0.222374 0.101561 0.846520 0.970981 -0.120275 0.206710 2
-0.219780 0.099135 0.829278 0.979274 -0.179455 0.093907 2
-0.218590 0.097670 0.801568 0.966918 -0.251630 0.041862 2
-0.217888 0.096571 0.770165 0.944817 -0.324476 0.045123 2
-0.216637 0.095076 0.742821 0.949782 -0.297182 0.097965 2
-0.214424 0.092894 0.722893 0.970792 -0.036363 0.237153 2
-0.210594 0.089644 0.714898 0.878022 0.169300 0.447677 2
-0.206383 0.086073 0.710076 0.859262 0.007605 0.511479 2
-0.202766 0.082960 0.700615 0.888150 -0.394389 0.235898 2
-0.200523 0.080748 0.681084 0.869368 -0.477144 0.128578 2
-0.198769 0.078917 0.657555 0.902087 -0.420103 0.098753 2
-0.197029 0.077086 0.633812 0.950841 -0.293513 0.098753 2
-0.195106 0.075163 0.611138 0.973585 -0.179576 0.141015 2
-0.192329 0.072600 0.595452 0.957823 -0.097243 0.270406 2
-0.188698 0.069411 0.586724 0.889262 -0.133197 0.437575 2
-0.181816 0.063383 0.565545 0.902334 -0.383907 0.195982 2
-0.178566 0.059904 0.515984 0.844675 -0.523076 0.113645 2
-0.176353 0.057768 0.495629 0.859413 -0.420155 0.291340 2
-0.172737 0.054625 0.486321 0.845306 -0.249554 0.472420 2
-0.168861 0.051314 0.478814 0.879088 -0.226741 0.419276 2
-0.165596 0.048430 0.466637 0.933303 -0.298269 0.199951 2
-0.163551 0.046385 0.445397 0.959454 -0.275700 0.058623 2
-0.163002 0.045363 0.412865 0.985286 -0.166385 0.039095 2
-0.161171 0.043471 0.389916 0.983635 0.032913 0.177143 2
-0.157417 0.040236 0.381493 0.861967 0.216155 0.458574 2
-0.153450 0.036864 0.374657 0.879564 -0.391737 0.270019 2
-0.151192 0.034682 0.354943 0.824247 -0.565570 0.027331 2
-0.152229 0.034758 0.310418 0.881824 -0.471356 0.014467 2
-0.150856 0.033156 0.284173 0.955725 -0.254907 0.147013 2
-0.147285 0.030089 0.274224 0.916321 -0.167631 0.363669 2
-0.143837 0.027037 0.263695 0.898599 -0.399943 0.180458 2
-0.139305 0.022612 0.225029 0.930704 -0.312809 0.189580 2
-0.136146 0.019774 0.212395 0.959314 -0.128632 0.251338 2
-0.133171 0.017119 0.197472 0.964431 -0.198841 0.174171 2
-0.131096 0.006895 0.169213 0.960190 -0.222226 0.169264 2
-0.123054 0.007658 0.126427 0.925076 -0.327905 0.191607 2
-0.125969 0.002104 0.134453 0.967897 -0.156159 0.196949 2
-0.117149 0.002287 0.097649 0.973048 -0.032036 0.228366 3
-0.114159 -0.000398 0.083428 0.978985 -0.065523 0.193118 3
-0.111427 -0.002916 0.067223 0.981307 -0.142073 0.129814 3
-0.109764 -0.004717 0.043175 0.969073 -0.231759 0.084761 3
-0.099693 -0.021730 0.001976 0.947674 -0.024797 0.318276 3
-0.097130 -0.015962 -0.008522 0.984078 0.007230 0.177589 3
-0.094765 -0.018205 -0.027503 0.990038 -0.133572 0.044534 3
-0.095085 -0.018648 -0.066505 0.974053 -0.225432 -0.020036 3
-0.096641 -0.018190 -0.114936 0.986697 -0.162369 -0.008096 3
-0.095177 -0.019853 -0.140602 0.997613 0.013811 0.067662 3
-0.099251 -0.019594 -0.317939 0.999617 -0.024438 0.012995 3
-0.097176 -0.021639 -0.339180 0.999102 -0.033951 0.025357 3
-0.098122 -0.012819 -0.339302 0.990448 0.107438 0.086425 3
-0.098976 -0.021013 -0.389411 0.991088 0.133003 0.007334 3
-0.098778 -0.021822 -0.424446 0.993425 0.114481 0.000900 3
-0.096214 -0.024843 -0.478645 0.972970 -0.217567 0.077418 3
-0.093498 -0.019182 -0.487953 0.928377 -0.368699 0.046662 3
-0.094948 -0.026384 -0.505683 0.990112 -0.134065 0.041292 3
-0.094490 -0.027330 -0.538917 0.999062 -0.012709 0.041402 3
-0.092125 -0.029573 -0.557899 0.980643 0.158477 0.114993 3
-0.089271 -0.032198 -0.573036 0.965184 0.218304 0.144094 3
0.411171 -0.422991 0.797661 0.854812 -0.098949 0.509416 1
0.419182 -0.428270 0.782067 0.865697 -0.113804 0.487459 1
0.422783 -0.431551 0.775231 0.835196 -0.124195 0.535746 1
0.572990 -0.555849 0.559411 0.740536 0.009316 0.671952 1
0.577126 -0.559282 0.554986 0.709960 -0.050268 0.702446 1
-0.153511 0.446806 1.609124 0.673145 -0.142266 0.725697 1
0.011818 -0.702974 1.348320 0.775695 -0.185639 0.603188 1
-0.094505 -0.610826 1.491173 0.775934 -0.012473 0.630691 1
-0.090080 -0.614305 1.485497 0.780836 0.013876 0.624582 1
-0.099861 -0.608248 1.497735 0.784987 0.001362 0.619511 1
-0.100151 -0.602220 1.498711 0.818017 -0.046791 0.573288 1
-0.105614 -0.606462 1.506066 0.735658 0.100926 0.669791 1
-0.114571 -0.595949 1.513604 0.702255 0.010472 0.711849 1
-0.123192 -0.580751 1.524804 0.825143 -0.068730 0.560727 1
-0.134163 -0.571428 1.547631 0.818239 -0.127960 0.560456 1
-0.145180 -0.569414 1.564599 0.840043 -0.042583 0.540847 1
-0.149025 -0.566499 1.570183 0.809295 0.023966 0.586913 1
-0.164406 -0.552706 1.594140 0.828723 0.041580 0.558113 1
-0.175789 -0.543566 1.614007 0.853874 -0.139216 0.501516 1
-0.184090 -0.536882 1.628319 0.809291 -0.148454 0.568339 1
-0.188591 -0.532472 1.635369 0.809122 -0.021549 0.587245 1
-0.192757 -0.529024 1.641228 0.759148 -0.074977 0.646585 1
-0.196953 -0.525484 1.646142 0.691337 -0.142735 0.708293 1
0.127373 0.157576 -0.867195 0.091039 -0.956582 0.276882 3
-0.201637 -0.513292 1.653862 0.714942 -0.132016 0.686607 1
-0.209602 -0.514879 1.661034 0.707551 -0.107520 0.698435 1
-0.213753 -0.511492 1.665429 0.714829 -0.037484 0.698294 1
-0.218162 -0.507677 1.670159 0.738344 0.024135 0.673992 1
-0.222496 -0.504335 1.675499 0.762957 0.116549 0.635856 1
-0.226891 -0.500795 1.680138 0.737167 0.278482 0.615656 1
-0.231743 -0.497133 1.683007 0.726468 0.417677 0.545702 1
-0.525642 0.347166 2.108941 0.796055 -0.024987 0.604708 1
-0.235512 -0.493089 1.685479 0.718632 0.505611 0.477415 1
-0.239784 -0.488939 1.686608 0.604467 0.670211 0.430623 1
-0.498131 0.340071 2.071587 0.808585 0.016995 0.588134 1
-0.493706 0.336607 2.066033 0.769312 0.089125 0.632627 1
-0.484932 0.329634 2.056542 0.760792 0.020376 0.648676 1
-0.244926 -0.484270 1.684685 0.392322 0.836025 0.383597 2
-0.480736 0.326155 2.050988 0.815641 0.016049 0.578336 1
-0.262794 -0.470171 1.659508 0.366153 0.870140 0.329830 2
-0.256966 -0.474657 1.667199 0.203083 0.924467 0.322673 2
-0.472588 0.319289 2.038720 0.815491 -0.084314 0.572596 1
-0.268059 -0.466234 1.657311 0.545685 0.756447 0.360578 2
-0.459953 0.309157 2.019341 0.756952 -0.051842 0.651410 1
-0.455559 0.305632 2.014428 0.740802 0.008001 0.671676 1
-0.447060 0.298430 2.005364 0.742036 0.031421 0.669624 1
-0.272911 -0.462511 1.658379 0.639429 0.661502 0.391849 2
-0.441948 0.286116 2.000512 0.799894 0.032486 0.599261 1
-0.438744 0.291365 1.995598 0.833420 0.030901 0.551776 1
-0.277611 -0.458772 1.660180 0.657000 0.679224 0.327117 2
-0.426353 0.280943 1.977135 0.853878 -0.013996 0.520285 1
-0.421699 0.268889 1.969018 0.833201 -0.038640 0.551618 1
-0.418312 0.274214 1.964715 0.751881 -0.030349 0.658600 1
-0.414009 0.270659 1.959923 0.709199 0.004471 0.704994 1
-0.405815 0.263258 1.952019 0.727152 -0.034200 0.685625 1
-0.282448 -0.454866 1.660607 0.560202 0.751196 0.349112 2
-0.287666 -0.450639 1.658135 0.487502 0.786888 0.378351 2
-0.292900 -0.446260 1.655999 0.553842 0.703519 0.445332 2
-0.395821 0.253706 1.926751 0.942279 -0.268256 0.200371 1
-0.392754 0.251570 1.905480 0.920164 -0.366780 0.137008 2
-0.390633 0.249510 1.883568 0.894828 -0.410768 0.174795 2
-0.391472 0.241865 1.873192 0.906154 -0.324857 0.270837 2
-0.385109 0.244185 1.858574 0.906287 -0.267203 0.327486 2
-0.381889 0.241408 1.846093 0.923375 -0.294804 0.245906 2
-0.297569 -0.442461 1.657067 0.657270 0.506267 0.558292 2
-0.302101 -0.438753 1.659447 0.822300 0.298867 0.484253 2
-0.369347 0.230391 1.787591 0.942811 -0.279758 0.181228 2
-0.367912 0.228728 1.761925 0.906859 -0.418489 0.049741 2
-0.370216 0.222166 1.737572 0.911903 -0.403264 0.076230 2
-0.365349 0.225706 1.707818 0.963171 -0.205687 0.173188 2
-0.362251 0.222853 1.695366 0.949472 -0.169322 0.264258 2
-0.359169 0.220091 1.682030 0.915724 -0.293592 0.274324 2
-0.306068 -0.435381 1.666161 0.899790 0.368856 0.233073 2
-0.356056 0.217345 1.668725 0.898405 -0.373829 0.230478 2
-0.353462 0.214949 1.651696 0.882285 -0.456552 0.114600 2
-0.351860 0.213515 1.621056 0.883007 -0.457133 0.106435 2
-0.348930 0.211394 1.601799 0.871272 -0.408303 0.272349 2
-0.345756 0.208082 1.592370 0.849947 -0.325373 0.414395 2
-0.342522 0.204970 1.583611 0.913717 -0.235387 0.331232 2
-0.339699 0.202315 1.570092 0.964634 -0.185300 0.187467 2
-0.337212 0.199919 1.552697 0.976324 -0.164257 0.140752 2
-0.335030 0.197798 1.532433 0.942564 -0.316330 0.107273 2
-0.334206 0.188429 1.494988 0.951042 -0.279832 0.131200 2
-0.328880 0.191633 1.468743 0.949751 -0.249417 0.189115 2
-0.325874 0.188933 1.454644 0.930612 -0.284031 0.230840 2
-0.323158 0.186415 1.438500 0.922872 -0.380534 0.059161 2
-0.325722 0.180022 1.412285 0.913316 -0.406186 0.029453 2
-0.322227 0.184462 1.372979 0.940478 -0.324428 0.101231 2
-0.319221 0.181654 1.359490 0.936732 -0.207206 0.282133 2
-0.316032 0.178877 1.346459 0.953749 -0.186806 0.235512 2
-0.313042 0.176329 1.330315 0.937909 -0.273839 0.212928 2
-0.310219 0.173735 1.314721 0.865537 -0.426359 0.262801 2
-0.307152 0.170897 1.303032 0.699736 -0.618341 0.357804 2
-0.303902 0.168150 1.293175 0.641766 -0.700916 0.311212 2
-0.301079 0.165617 1.278618 0.655268 -0.717881 0.235095 2
-0.298073 0.162764 1.260521 0.751020 -0.618537 0.231044 2
-0.309624 -0.432314 1.676201 0.917025 0.350837 0.189681 2
-0.295006 0.160063 1.246300 0.878620 -0.320408 0.354069 2
-0.291557 0.157027 1.235650 0.952319 -0.086692 0.292528 2
-0.288368 0.154188 1.223107 0.984568 -0.024785 0.173239 2
-0.286079 0.151976 1.203728 0.995543 -0.050382 0.079724 2
-0.284462 0.150221 1.179253 0.990439 -0.108280 0.085479 2
-0.282646 0.148314 1.156304 0.975238 -0.185689 0.120129 2
-0.278068 0.143889 1.117394 0.979340 -0.159934 0.123747 2
-0.276024 0.141844 1.096093 0.978078 -0.169413 0.121086 2
-0.273674 0.139586 1.077080 0.955029 -0.207873 0.211442 2
-0.267525 0.134062 1.050194 0.941391 -0.249582 0.226919 2
-0.312950 -0.429369 1.687768 0.916276 0.371628 0.149432 2
-0.315834 -0.426759 1.702843 0.936923 0.316638 0.148040 2
-0.262031 0.128981 1.018486 0.918714 -0.225282 0.324366 2
-0.255211 0.122969 0.997399 0.914230 -0.266550 0.305179 2
-0.252403 0.120390 0.981743 0.943578 -0.280075 0.176686 2
-0.247200 0.115584 0.946709 0.975577 -0.058386 0.211757 2
-0.241295 0.110319 0.916741 0.973704 -0.048976 0.222492 2
-0.318779 -0.424074 1.717309 0.914192 0.363370 0.179485 2
-0.234764 0.104521 0.892815 0.938456 -0.231609 0.256236 2
-0.228828 0.099135 0.864251 0.919576 -0.299480 0.254345 2
-0.322334 -0.421007 1.727318 0.891012 0.400784 0.213238 2
-0.326134 -0.417742 1.735375 0.899316 0.383040 0.210974 2
-0.222313 0.093367 0.839898 0.950766 -0.253227 0.178664 2
-0.220573 0.091521 0.816338 0.963276 -0.264494 0.046283 2
-0.220192 0.090620 0.782525 0.965292 -0.259217 0.031898 2
-0.219170 0.089293 0.753563 0.971599 -0.221994 0.081943 2
-0.216804 0.087004 0.734765 0.976319 -0.086377 0.198344 2
-0.213280 0.083937 0.724572 0.928416 0.114128 0.353579 2
-0.209419 0.080656 0.716912 0.919331 -0.099642 0.380659 2
-0.209557 0.072569 0.709160 0.900183 -0.379250 0.214103 2
-0.203987 0.075621 0.684807 0.886536 -0.442138 0.136263 2
-0.205284 0.068373 0.667748 0.905226 -0.406018 0.125357 2
-0.199837 0.071501 0.642449 0.935676 -0.326812 0.133057 2
-0.197411 0.069182 0.623986 0.980591 -0.072355 0.182227 2
-0.194817 0.066771 0.606743 0.983069 -0.000323 0.183233 2
-0.191704 0.063978 0.593621 0.968241 -0.007296 0.249913 2
-0.188255 0.060957 0.583092 0.916776 -0.221855 0.332118 2
-0.185142 0.058165 0.569787 0.921899 -0.330664 0.201902 2
-0.182899 0.055983 0.550194 0.905570 -0.414591 0.089761 2
-0.181908 0.054686 0.520348 0.907197 -0.414064 0.074464 2
-0.179863 0.052641 0.499016 0.916838 -0.333633 0.219312 2
-0.176231 0.049528 0.489647 0.861949 -0.186331 0.471513 2
-0.172295 0.046156 0.482689 0.879379 -0.177088 0.441965 2
-0.168800 0.043120 0.472313 0.937255 -0.227929 0.263820 2
-0.166237 0.040709 0.454949 0.964164 -0.242892 0.106729 2
-0.164940 0.039183 0.427971 0.975535 -0.213610 0.051975 2
-0.163597 0.037581 0.401574 0.983701 -0.136128 0.117482 2
-0.160545 0.034865 0.387688 0.937144 -0.165095 0.307415 2
-0.157173 0.031889 0.376458 0.821835 -0.533410 0.200153 2
-0.155174 0.029906 0.354729 0.807801 -0.587807 0.044038 2
-0.155006 0.029112 0.319481 0.903294 -0.425749 0.052900 2
-0.153328 0.027357 0.295311 0.983661 -0.106419 0.145213 2
-0.150215 0.024565 0.282097 0.973723 0.089118 0.209572 2
-0.147057 0.021742 0.269158 0.965058 -0.156414 0.210233 2
-0.144783 0.019545 0.249627 0.947355 -0.284153 0.147567 2
-0.329552 -0.414720 1.746209 0.928433 0.330312 0.170019 2
-0.142265 0.017180 0.231896 0.961309 -0.151298 0.230204 2
-0.138924 0.014220 0.220452 0.964707 0.019473 0.262606 2
-0.135780 0.011473 0.206872 0.980660 -0.092103 0.172692 2
-0.133491 0.009260 0.187401 0.978496 -0.155304 0.135743 2
-0.332542 -0.411913 1.759484 0.932156 0.321048 0.167369 2
-0.122826 -0.000688 0.121300 0.966079 0.097876 0.238981 2
-0.119514 -0.003587 0.109520 0.962537 0.167748 0.213035 2
-0.116508 -0.006304 0.095482 0.983687 0.052901 0.171933 3
-0.113853 -0.008775 0.078728 0.989139 -0.065653 0.131504 3
-0.112038 -0.010652 0.055748 0.975103 -0.209337 0.073165 3
-0.110680 -0.012224 0.029229 0.968239 -0.212267 0.132125 3
-0.107597 -0.015016 0.015893 0.937809 -0.013104 0.346903 3
-0.103569 -0.018404 0.009453 0.887326 0.124019 0.444152 3
-0.335838 -0.408998 1.771355 0.909422 0.371594 0.186735 2
-0.096886 -0.024309 -0.013496 0.968086 -0.227738 0.104613 3
-0.096062 -0.025499 -0.044075 0.987171 -0.159645 0.002488 3
-0.096764 -0.025636 -0.086067 0.999957 -0.008339 -0.004111 3
-0.096382 -0.026552 -0.119880 0.995200 0.091642 0.034343 3
-0.094322 -0.028597 -0.141029 0.998179 0.015026 0.058412 3
-0.092888 -0.030245 -0.166908 0.980964 -0.192711 -0.023900 3
-0.095207 -0.029253 -0.221107 0.994135 -0.101878 -0.036292 3
-0.096352 -0.020921 -0.259559 0.995296 -0.084228 -0.047871 3
-0.098732 -0.028124 -0.320930 0.993553 0.110350 0.025973 3
-0.098076 -0.029176 -0.352821 0.991618 0.128651 0.011961 3
-0.096352 -0.031008 -0.376472 0.991896 0.126813 -0.007840 3
-0.098640 -0.030077 -0.430305 0.999769 0.005980 -0.020642 3
-0.098640 -0.030733 -0.466987 0.997921 -0.047522 0.043534 3
-0.096870 -0.032564 -0.490516 0.997396 -0.048327 0.053532 3
-0.095940 -0.033846 -0.520118 0.998050 0.025023 0.057182 3
-0.093880 -0.035906 -0.541297 0.982428 0.165315 0.086639 3
-0.091392 -0.038240 -0.559364 0.979476 0.156191 0.127402 3
-0.339439 -0.405779 1.780266 0.892950 0.366176 0.261830 2
-0.343422 -0.402315 1.786583 0.861098 0.378270 0.339739 2
-0.347603 -0.398836 1.792412 0.860875 0.363601 0.355935 2
0.400322 -0.421556 0.813408 0.784150 -0.014867 0.620394 1
0.401466 -0.430086 0.812798 0.818619 -0.006628 0.574299 1
-0.351570 -0.395509 1.799035 0.884454 0.354823 0.303054 2
-0.355339 -0.392229 1.806633 0.932108 0.285291 0.223124 2
-0.362328 -0.385805 1.866845 0.989768 0.073450 0.122329 2
0.419960 -0.435976 0.779198 0.871275 -0.047699 0.488472 1
-0.365898 -0.382707 1.876397 0.892525 0.178232 0.414285 1
-0.371086 -0.370302 1.880822 0.839577 -0.023581 0.542728 1
-0.378517 -0.372072 1.891381 0.826654 -0.043008 0.561065 1
-0.382576 -0.368669 1.897851 0.830093 -0.026431 0.556998 1
-0.386665 -0.365205 1.903618 0.779652 0.038099 0.625053 1
-0.415947 -0.340624 1.940606 0.754453 0.013255 0.656221 1
-0.420128 -0.337129 1.946068 0.805265 -0.039890 0.591571 1
-0.428307 -0.330187 1.958062 0.800466 -0.075915 0.594552 1
-0.436211 -0.323229 1.968651 0.766564 -0.072039 0.638115 1
-0.444847 -0.316118 1.978722 0.802181 0.152587 0.577254 1
-0.449043 -0.312563 1.983666 0.849944 0.182799 0.494146 1
-0.453072 -0.309114 1.989647 0.894835 0.109390 0.432786 1
-0.456963 -0.305895 1.997887 0.922111 0.027113 0.385975 1
-0.460869 -0.302858 2.007836 0.912103 -0.020023 0.409473 1
-0.473167 -0.292436 2.025383 0.753725 -0.016242 0.656989 1
-0.477516 -0.288927 2.030632 0.768311 -0.077036 0.635424 1
-0.481758 -0.285433 2.036553 0.789729 -0.104363 0.604514 1
-0.482460 -0.276842 2.039177 0.831433 -0.112028 0.544213 1
-0.493797 -0.275575 2.057396 0.833648 0.012553 0.552154 1
-0.498054 -0.272066 2.062523 0.769147 0.165530 0.617262 1
-0.506309 -0.264589 2.069817 0.767832 0.174862 0.616325 1
-0.510353 -0.260957 2.074364 0.806397 0.027050 0.590756 1
-0.514366 -0.257478 2.080346 0.844582 -0.065751 0.531373 1
-0.522453 -0.250704 2.093438 0.776914 0.003802 0.629595 1
-0.526497 -0.247057 2.097588 0.728575 0.126467 0.673190 1
-0.535271 -0.239992 2.107171 0.875718 0.046107 0.480616 1
-0.543556 -0.233476 2.122857 0.864971 0.039710 0.500249 1
-0.547371 -0.229921 2.127770 0.764602 0.072702 0.640389 1
-0.551567 -0.226198 2.131218 0.644434 0.083974 0.760035 1
-0.560203 -0.218782 2.137932 0.706581 -0.059714 0.705108 1
0.130776 0.161467 -0.859016 0.234096 -0.912108 0.336537 3
-0.568657 -0.203569 2.155358 0.880281 -0.178372 0.439646 1
-0.572563 -0.200426 2.164544 0.880424 -0.115994 0.459781 1
-0.595985 -0.188249 2.197899 0.807300 0.122449 0.577299 1
-0.601723 -0.176317 2.205285 0.748062 0.031804 0.662866 1
-0.609352 -0.177904 2.214074 0.771471 0.041318 0.634922 1
-0.625694 -0.163789 2.235680 0.784438 -0.003993 0.620195 1
-0.514122 0.345686 2.092583 0.799074 -0.050716 0.599090 1
-0.629616 -0.160249 2.240929 0.805214 -0.065754 0.589328 1
-0.633568 -0.156862 2.247429 0.823591 -0.065138 0.563431 1
-0.496941 0.331587 2.069878 0.778233 -0.023586 0.627533 1
-0.637840 -0.153398 2.253594 0.800491 0.004322 0.599330 1
-0.642128 -0.149889 2.258812 0.759100 -0.001203 0.650972 1
-0.488411 0.324492 2.060235 0.728575 -0.058728 0.682444 1
-0.484215 0.320967 2.055382 0.769730 -0.048432 0.636529 1
-0.479973 0.317473 2.049675 0.820965 -0.026520 0.570362 1
-0.479164 0.308852 2.047844 0.824420 -0.043058 0.564338 1
-0.471626 0.310774 2.035851 0.845100 -0.069034 0.530132 1
-0.646431 -0.146303 2.263695 0.724326 -0.011904 0.689355 1
-0.467384 0.307524 2.028893 0.830942 -0.006111 0.556325 1
-0.463112 0.304137 2.023186 0.780605 0.055521 0.622554 1
-0.454506 0.296995 2.013543 0.762307 0.088494 0.641137 1
-0.654808 -0.139177 2.272484 0.726496 -0.035923 0.686231 1
-0.446190 0.289686 2.005242 0.752295 0.085995 0.653190 1
-0.433037 0.270369 1.987664 0.831356 -0.007293 0.555692 1
-0.676323 -0.113390 2.305718 0.811761 0.008185 0.583933 1
-0.405586 0.254607 1.950554 0.778672 -0.089652 0.620993 1
-0.401970 0.251250 1.944146 0.891069 -0.143299 0.430652 1
-0.398506 0.248350 1.933526 0.951257 -0.211705 0.224256 1
-0.395760 0.246107 1.912652 0.945525 -0.300261 0.125800 2
-0.393852 0.244246 1.889031 0.926969 -0.349708 0.135764 2
-0.391792 0.233763 1.867730 0.911601 -0.237726 0.335366 2
-0.385277 0.236052 1.851830 0.934937 -0.237926 0.263219 2
-0.378746 0.230574 1.820244 0.954721 -0.154321 0.254346 2
-0.378441 0.222197 1.815575 0.958100 -0.151953 0.242807 2
-0.372459 0.224989 1.794060 0.900626 -0.418498 0.117183 2
-0.371086 0.223387 1.767785 0.847934 -0.526971 0.057523 2
-0.367912 0.219923 1.718407 0.977467 -0.089760 0.191055 2
-0.364967 0.217238 1.704430 0.977378 -0.029456 0.209438 2
-0.362114 0.214598 1.689385 0.970961 -0.154530 0.182637 2
-0.359322 0.212065 1.673821 0.937938 -0.265732 0.222841 2
-0.356590 0.209532 1.658593 0.950320 -0.279034 0.137955 2
-0.355019 0.207945 1.630364 0.966397 -0.238952 0.094756 2
-0.352043 0.205977 1.608361 0.982469 -0.084004 0.166425 2
-0.349251 0.202803 1.597161 0.944548 -0.047953 0.324852 2
-0.345802 0.199660 1.589470 0.932974 -0.038024 0.357929 2
-0.342522 0.196699 1.578972 0.962040 -0.063529 0.265413 2
-0.339561 0.194029 1.564751 0.985104 -0.079832 0.152306 2
-0.337364 0.191893 1.544549 0.985282 -0.148648 0.084403 2
-0.336082 0.190352 1.517663 0.969434 -0.235528 0.068732 2
-0.331779 0.186125 1.476586 0.948220 -0.275058 0.158818 2
-0.332283 0.178282 1.465935 0.925796 -0.325048 0.192991 2
-0.326378 0.181120 1.443871 0.896301 -0.429288 0.111156 2
-0.325020 0.178892 1.381096 0.921797 -0.372964 0.105777 2
-0.322349 0.176375 1.365014 0.927025 -0.241541 0.286848 2
-0.318886 0.173338 1.354424 0.950826 -0.117104 0.286735 2
-0.315834 0.170653 1.339806 0.976354 -0.112807 0.184413 2
-0.313332 0.168349 1.321251 0.965833 -0.207597 0.155147 2
-0.310829 0.165953 1.304131 0.886316 -0.413830 0.207819 2
-0.308021 0.163435 1.290307 0.700152 -0.669710 0.247538 2
-0.305336 0.161070 1.274254 0.652412 -0.717447 0.244188 2
-0.302132 0.158034 1.259545 0.742775 -0.576085 0.341193 2
-0.298439 0.154890 1.249810 0.833653 -0.211563 0.510161 2
-0.294640 0.151625 1.242211 0.902245 -0.101715 0.419056 2
-0.290977 0.148436 1.233422 0.954866 -0.056209 0.291670 2
-0.287987 0.145735 1.219231 0.985414 -0.051110 0.162317 2
-0.284813 0.142271 1.169762 0.994583 -0.079235 0.067276 2
-0.283012 0.140394 1.146599 0.984125 -0.130283 0.120517 2
-0.280510 0.138029 1.128808 0.984039 -0.116319 0.134673 2
-0.278328 0.135893 1.108483 0.975913 -0.191215 0.105029 2
-0.276436 0.133955 1.086083 0.961201 -0.234981 0.144489 2
-0.273704 0.131438 1.069970 0.945270 -0.209008 0.250559 2
-0.270500 0.128615 1.057335 0.958738 -0.189376 0.212031 2
-0.265144 0.123610 1.024559 0.954166 -0.210027 0.213206 2
-0.261909 0.120741 1.012291 0.924198 -0.198650 0.326184 2
-0.258522 0.117720 1.001763 0.921105 -0.257188 0.292268 2
-0.255501 0.115019 0.987816 0.931452 -0.293421 0.215177 2
-0.252876 0.112593 0.970604 0.954180 -0.228965 0.192652 2
-0.249947 0.109892 0.955986 0.960338 -0.124817 0.249344 2
-0.240227 0.093214 0.911278 0.972569 -0.063788 0.223697 2
-0.237678 0.098982 0.900719 0.972005 -0.077890 0.221674 2
-0.234825 0.096373 0.885613 0.970836 -0.141922 0.193227 2
-0.232094 0.093840 0.869561 0.944957 -0.227429 0.235230 2
-0.228920 0.091017 0.856713 0.918564 -0.254721 0.302255 2
-0.225578 0.088072 0.845177 0.915086 -0.309786 0.258168 2
-0.223122 0.085722 0.827111 0.948494 -0.301685 0.096674 2
-0.222084 0.084410 0.798119 0.975067 -0.218332 0.039706 2
-0.221260 0.083189 0.767632 0.988328 -0.142022 0.055112 2
-0.219429 0.081282 0.744805 0.987402 -0.068111 0.142825 2
-0.216301 0.078490 0.731621 0.937052 -0.093732 0.336375 2
-0.212685 0.075377 0.722130 0.902561 -0.263546 0.340481 2
-0.207176 0.070296 0.690453 0.924325 -0.359670 0.127519 2
-0.202995 0.066160 0.648125 0.937697 -0.294833 0.183844 2
-0.200020 0.063444 0.634179 0.958110 -0.124935 0.257713 2
-0.196464 0.052168 0.617486 0.980406 -0.030947 0.194541 2
-0.191231 0.055479 0.590264 0.966063 -0.165103 0.198652 2
-0.188362 0.052855 0.575188 0.945508 -0.254981 0.202481 2
-0.185799 0.050459 0.557824 0.957146 -0.266223 0.114002 2
-0.184486 0.048964 0.530602 0.966424 -0.247994 0.067254 2
-0.182747 0.047102 0.507012 0.983690 -0.119013 0.134867 2
-0.179481 0.044203 0.495018 0.941864 -0.017046 0.335561 2
-0.175667 0.040922 0.487175 0.899337 -0.052766 0.434061 2
-0.171944 0.037749 0.478447 0.934122 -0.092950 0.344639 2
-0.168755 0.034910 0.465783 0.980637 -0.108314 0.163151 2
-0.166862 0.032973 0.443413 0.987478 -0.142946 0.066730 2
-0.165688 0.031523 0.415398 0.992721 -0.096264 0.072377 2
-0.163399 0.029310 0.396050 0.982966 -0.099335 0.154632 2
-0.160713 0.026808 0.379601 0.913054 -0.385495 0.133141 2
-0.159187 0.025130 0.354363 0.857415 -0.511117 0.059998 2
-0.157967 0.023680 0.326684 0.949189 -0.298781 0.098845 2
-0.155327 0.021178 0.310112 0.973116 0.112196 0.201138 2
-0.149376 0.015806 0.281487 0.989711 -0.033270 0.139162 2
-0.147514 0.013884 0.258812 0.973165 -0.198261 0.116805 2
-0.144936 0.011519 0.241204 0.972878 -0.069519 0.220627 2
-0.141472 0.008436 0.231286 0.942167 0.185893 0.278863 2
-0.138145 0.005476 0.219964 0.981780 0.044355 0.184769 2
-0.135734 0.003218 0.200860 0.992230 -0.043947 0.116393 2
-0.133568 0.001112 0.180138 0.985596 -0.106395 0.131454 2
-0.131096 -0.001238 0.162133 0.981521 -0.101992 0.161908 2
-0.130821 -0.009569 0.157189 0.975235 0.009415 0.220970 2
-0.125023 -0.006700 0.134575 0.933348 0.248609 0.258951 2
-0.118370 -0.012544 0.111260 0.983789 0.103946 0.146135 3
-0.115852 -0.014909 0.093407 0.994969 -0.030930 0.095286 3
-0.114159 -0.016710 0.069512 0.989648 -0.133737 0.052073 3
-0.113182 -0.018038 0.040276 0.985758 -0.145032 0.085126 3
-0.110527 -0.020525 0.023644 0.966936 -0.018394 0.254355 3
-0.106682 -0.023805 0.015801 0.899744 0.045234 0.434068 3
-0.102898 -0.027040 0.007622 0.917366 -0.239083 0.318244 3
-0.100059 -0.029649 -0.007667 0.863566 -0.472527 0.175986 3
-0.098091 -0.031648 -0.029518 0.955320 -0.278725 0.098366 3
-0.096519 -0.033342 -0.054512 0.998034 0.055536 0.029047 3
-0.095116 -0.035585 -0.117286 0.998170 0.058088 0.016789 3
-0.094643 -0.036531 -0.150459 0.993824 -0.110662 0.008174 3
-0.094154 -0.037538 -0.183326 0.994841 0.092172 0.042372 3
-0.096367 -0.038515 -0.346900 0.987603 0.156547 0.011517 3
-0.096443 -0.039140 -0.383979 0.996673 0.076883 -0.027047 3
-0.098885 -0.038072 -0.439125 0.990040 0.140175 -0.013133 3
-0.097679 -0.039552 -0.466682 0.977766 0.207611 0.029512 3
-0.096001 -0.041338 -0.490821 0.939854 0.337459 0.052871 3
-0.094292 -0.043169 -0.514534 0.946532 0.317679 0.056191 3
0.396843 -0.426164 0.817986 0.789775 0.024707 0.612899 1
0.405144 -0.431764 0.806908 0.856119 -0.069910 0.512028 1
0.408897 -0.435137 0.799706 0.872469 -0.091140 0.480095 1
0.126015 0.223540 0.368706 -0.180626 -0.964832 0.190981 2
-0.529808 0.350630 2.114190 0.814464 0.019634 0.579881 1
-0.520943 0.335112 2.101403 0.812177 -0.061507 0.580160 1
-0.513298 0.336821 2.090813 0.793490 -0.023952 0.608111 1
-0.504402 0.329863 2.079613 0.803600 0.002953 0.595162 1
-0.495949 0.323027 2.067803 0.775004 -0.035199 0.630975 1
-0.491814 0.319441 2.063073 0.713186 -0.062787 0.698158 1
-0.466164 0.298857 2.028252 0.806399 0.100045 0.582848 1
-0.461998 0.295332 2.023400 0.785709 0.144845 0.601399 1
-0.449440 0.284483 2.009942 0.784372 0.137873 0.604774 1
-0.445122 0.280928 2.004845 0.808469 -0.009995 0.588454 1
-0.412834 0.253065 1.958336 0.728640 -0.039342 0.683766 1
-0.407936 0.240919 1.951836 0.785635 -0.068829 0.614850 1
-0.404732 0.246077 1.947899 0.866551 -0.099413 0.489087 1
-0.401344 0.242888 1.939843 0.944273 -0.167902 0.283122 1
-0.398582 0.240446 1.923058 0.962747 -0.241609 0.121423 2
-0.396828 0.238646 1.898613 0.958668 -0.264801 0.104096 2
-0.394646 0.236510 1.878838 0.945869 -0.259266 0.195225 2
-0.388359 0.230345 1.857781 0.933407 -0.136768 0.331731 2
-0.384819 0.227583 1.843712 0.964471 -0.106367 0.241831 2
-0.381584 0.224974 1.828759 0.972190 -0.047134 0.229400 2
-0.375786 0.219755 1.798821 0.874470 -0.477593 0.084890 2
-0.374885 0.218474 1.768944 0.806495 -0.587990 0.061923 2
-0.373390 0.216826 1.743432 0.891539 -0.429100 0.145021 2
-0.370338 0.214064 1.729821 0.956808 -0.084463 0.278180 2
-0.367180 0.211256 1.717003 0.979937 -0.054129 0.191816 2
-0.367195 0.203093 1.709862 0.951471 -0.269973 0.147704 2
-0.362328 0.206633 1.680840 0.954042 -0.244544 0.173209 2
-0.359550 0.203993 1.665947 0.955275 -0.206056 0.212108 2
-0.357033 0.201521 1.649102 0.990802 -0.043058 0.128286 2
-0.354515 0.199568 1.626671 0.989649 0.067224 0.126789 2
-0.351799 0.196959 1.609826 0.980683 0.087099 0.175140 2
-0.348656 0.194075 1.598443 0.958481 0.020516 0.284417 2
-0.341927 0.188139 1.576745 0.970854 -0.012720 0.239335 2
-0.339241 0.185652 1.560204 0.985686 -0.152186 0.072542 2
-0.336937 0.182783 1.504174 0.970780 -0.225871 0.081053 2
-0.329796 0.175932 1.448052 0.904034 -0.414859 0.103029 2
-0.328606 0.174467 1.420250 0.906118 -0.421265 0.038565 2
-0.328041 0.173445 1.387932 0.914834 -0.396762 0.075221 2
-0.325661 0.171171 1.369286 0.913098 -0.304064 0.271656 2
-0.321999 0.167982 1.360528 0.901781 -0.128342 0.412698 2
-0.318504 0.164885 1.351525 0.962817 -0.091836 0.254066 2
-0.315651 0.162352 1.335106 0.980070 -0.144671 0.136139 2
-0.313820 0.160475 1.312157 0.947820 -0.301147 0.104631 2
-0.311897 0.158583 1.290276 0.864886 -0.475391 0.161166 2
-0.309502 0.156279 1.272576 0.781260 -0.569322 0.255940 2
-0.305992 0.153151 1.260552 0.832734 -0.354762 0.425085 2
-0.301964 0.149809 1.253136 0.822567 -0.135740 0.552231 2
-0.294105 0.143050 1.239678 0.877885 -0.155314 0.452985 2
-0.290611 0.140013 1.229332 0.955182 -0.121417 0.269974 2
-0.287788 0.137434 1.213921 0.991320 -0.052500 0.120537 2
-0.286049 0.135603 1.190300 0.997820 -0.024834 0.061138 2
-0.284706 0.134062 1.163567 0.997711 -0.009266 0.066979 2
-0.282768 0.132078 1.141533 0.992861 -0.053737 0.106490 2
-0.280708 0.130019 1.120354 0.975532 -0.206331 0.075922 2
-0.279198 0.128340 1.095025 0.944755 -0.308946 0.109499 2
-0.276817 0.126066 1.076226 0.917526 -0.298426 0.262845 2
-0.273537 0.123152 1.064293 0.930948 -0.228751 0.284619 2
-0.267876 0.117964 1.033776 0.971984 -0.134786 0.192562 2
-0.264885 0.115263 1.019646 0.964517 -0.097524 0.245350 2
-0.261650 0.112379 1.007714 0.945987 -0.170477 0.275765 2
-0.258598 0.109633 0.994164 0.945281 -0.230146 0.231252 2
-0.255806 0.107100 0.978051 0.954176 -0.213157 0.210030 2
-0.252876 0.104414 0.963341 0.950609 -0.158743 0.266726 2
-0.246254 0.098631 0.939324 0.958439 -0.128509 0.254714 2
-0.237236 0.090513 0.897149 0.975345 -0.086544 0.203010 2
-0.231956 0.085570 0.863701 0.969929 -0.140485 0.198751 2
-0.228859 0.082823 0.850274 0.934543 -0.262427 0.240338 2
-0.226112 0.080275 0.834252 0.934531 -0.320519 0.154656 2
-0.224159 0.078291 0.812310 0.971767 -0.219043 0.087682 2
-0.222694 0.076659 0.786583 0.996824 -0.037942 0.070018 2
-0.221321 0.075056 0.760308 0.996995 -0.007290 0.077118 2
-0.216072 0.070174 0.726433 0.940895 -0.212183 0.263998 2
-0.212944 0.067366 0.713433 0.913217 -0.316549 0.256577 2
-0.210152 0.064802 0.697899 0.946209 -0.283124 0.156617 2
-0.208214 0.062849 0.675560 0.957057 -0.267863 0.110864 2
-0.206123 0.060789 0.654290 0.962933 -0.211784 0.167056 2
-0.203056 0.057997 0.640984 0.951457 -0.084419 0.295977 2
-0.199547 0.054945 0.630852 0.962925 -0.054381 0.264232 2
-0.191307 0.047362 0.582695 0.968226 -0.138658 0.208115 2
-0.188438 0.044768 0.567528 0.981146 -0.109490 0.159260 2
-0.186333 0.042692 0.546563 0.991224 -0.102711 0.083216 2
-0.184624 0.040907 0.522484 0.988433 0.107376 0.107100 2
-0.182014 0.038435 0.505669 0.974553 0.110572 0.194989 2
-0.178657 0.035475 0.494408 0.954253 0.073984 0.289701 2
-0.175011 0.032316 0.485192 0.925155 0.007177 0.379522 2
-0.171318 0.029112 0.476494 0.959205 -0.027296 0.281392 2
-0.168526 0.026564 0.460991 0.992008 -0.084276 0.093901 2
-0.167061 0.024931 0.434899 0.995662 -0.066912 0.064656 2
-0.165459 0.023192 0.410271 0.991866 -0.089244 0.090762 2
-0.163277 0.021040 0.390069 0.976829 -0.191359 0.095846 2
-0.162163 0.019652 0.361657 0.958882 -0.276298 0.064842 2
-0.160713 0.018019 0.335961 0.985814 -0.111271 0.125660 2
-0.157555 0.015196 0.323052 0.958899 0.130043 0.252194 2
-0.153969 0.012083 0.313378 0.973227 0.107490 0.203162 2
-0.151283 0.009581 0.296959 0.977460 -0.178909 0.112089 2
-0.150017 0.008101 0.269646 0.943677 -0.314333 0.103286 2
-0.147545 0.005781 0.251397 0.972438 -0.025477 0.231767 2
-0.143898 0.002455 0.244072 0.887881 0.315841 0.334532 2
-0.140297 -0.000749 0.235894 0.973871 0.133047 0.184048 2
-0.135765 -0.004945 0.194298 0.985189 -0.141542 0.096789 2
-0.133461 -0.007143 0.174248 0.983188 -0.113857 0.142750 2
-0.127312 -0.012651 0.147057 0.923819 0.171716 0.342159 2
-0.123466 -0.015947 0.139428 0.931111 0.239652 0.274955 2
-0.120064 -0.018923 0.128319 0.967358 0.167900 0.189811 2
-0.117393 -0.021394 0.111687 0.990926 0.079234 0.108573 3
-0.115593 -0.023287 0.088555 0.998044 -0.029756 0.054987 3
-0.114754 -0.024492 0.058190 0.998782 -0.014255 0.047240 3
-0.112862 -0.026430 0.035729 0.989702 0.046646 0.135328 3
-0.109642 -0.029299 0.023400 0.960282 -0.033147 0.277055 3
-0.106316 -0.032213 0.011590 0.872123 -0.446963 0.199063 3
-0.108696 -0.046922 -0.020027 0.881497 -0.445533 0.156406 3
-0.101494 -0.036821 -0.025398 0.856880 -0.478671 0.191392 3
-0.098473 -0.039552 -0.039314 0.959855 -0.197692 0.198987 3
-0.095741 -0.042055 -0.055458 0.995126 -0.023372 0.095806 3
-0.094749 -0.043382 -0.084663 0.999916 -0.011987 0.004985 3
-0.095741 -0.043321 -0.128913 0.990991 -0.133706 -0.007699 3
-0.095360 -0.044206 -0.162757 0.995781 -0.056536 0.072279 3
-0.092461 -0.046846 -0.177619 0.944743 0.260911 0.198458 3
-0.095207 -0.046892 -0.308235 0.983167 0.182433 0.010037 3
-0.094871 -0.047746 -0.342414 0.988690 0.149900 -0.004788 3
-0.095192 -0.048143 -0.381568 0.986360 0.163745 -0.016765 3
-0.096748 -0.047701 -0.430000 0.985618 0.166906 0.026463 3
-0.094459 -0.049928 -0.449409 0.924615 0.372839 0.077962 3
-0.091591 -0.052553 -0.464454 0.896198 0.438675 0.066286 3
0.020393 -0.700746 1.336754 0.818329 -0.105180 0.565043 1
0.394859 -0.432024 0.821801 0.790587 0.031559 0.611536 1
0.016563 -0.697511 1.343743 0.825533 -0.103798 0.554726 1
0.011635 -0.691652 1.351342 0.820479 0.064569 0.568019 1
0.006783 -0.689806 1.357415 0.751609 0.045489 0.658039 1
0.416481 -0.449968 0.785454 0.870335 0.003780 0.492446 1
0.002647 -0.686479 1.361809 0.736934 0.033418 0.675138 1
-0.083794 -0.613313 1.477837 0.780346 -0.035434 0.624343 1
-0.102745 -0.601457 1.502434 0.709382 -0.039760 0.703702 1
-0.115547 -0.579576 1.516594 0.643305 -0.089472 0.760364 1
-0.118919 -0.584154 1.519219 0.734172 -0.042066 0.677660 1
-0.127068 -0.577654 1.532586 0.874490 -0.173568 0.452926 1
-0.141670 -0.564470 1.560051 0.794549 -0.067888 0.603393 1
-0.153465 -0.554323 1.576348 0.838571 0.012453 0.544649 1
-0.157417 -0.550920 1.582970 0.852055 0.017998 0.523143 1
-0.162178 -0.539079 1.589196 0.841992 0.039109 0.538071 1
-0.168571 -0.541567 1.600335 0.887396 -0.048293 0.458471 1
-0.176231 -0.535982 1.617760 0.873441 -0.117297 0.472591 1
-0.180489 -0.532045 1.624993 0.814570 -0.036073 0.578942 1
-0.197578 -0.516817 1.648369 0.807814 -0.021619 0.589041 1
-0.205849 -0.509798 1.658379 0.687259 -0.026549 0.725927 1
-0.210182 -0.506136 1.662041 0.677932 0.110318 0.726800 1
-0.214638 -0.502489 1.665154 0.692169 0.288904 0.661389 1
-0.219185 -0.498827 1.668358 0.687057 0.476974 0.548132 1
-0.223686 -0.495088 1.670983 0.639055 0.620856 0.454034 2
-0.228218 -0.490999 1.671715 0.637616 0.664237 0.390172 2
-0.232933 -0.486818 1.671685 0.624865 0.692918 0.359733 2
-0.237755 -0.482500 1.671105 0.555325 0.759178 0.339503 2
-0.243294 -0.477770 1.667077 0.312063 0.887139 0.340001 2
-0.248039 -0.466371 1.639336 0.248273 0.911811 0.327048 2
-0.255501 -0.468279 1.648888 0.290627 0.879886 0.375947 2
-0.260857 -0.464189 1.645287 0.456871 0.775878 0.435065 2
-0.265755 -0.460481 1.645562 0.625029 0.604244 0.494195 2
-0.270470 -0.456743 1.647118 0.635284 0.537100 0.554921 2
-0.275200 -0.452913 1.648491 0.605573 0.600465 0.522229 2
-0.279976 -0.449007 1.649285 0.527570 0.578195 0.622383 2
-0.284782 -0.445055 1.649895 0.482112 0.336822 0.808776 2
-0.289726 -0.440523 1.651299 0.407883 0.088206 0.908763 2
-0.294182 -0.437135 1.653313 0.472325 -0.050595 0.879971 2
-0.298546 -0.433687 1.656426 0.530021 -0.104791 0.841485 2
-0.306770 -0.426729 1.667870 0.886867 0.011860 0.461873 2
-0.310600 -0.423448 1.675683 0.936384 0.106239 0.334511 2
-0.314079 -0.420427 1.686242 0.958443 0.170765 0.228532 2
-0.317207 -0.417635 1.699364 0.940792 0.274324 0.199140 2
-0.516746 0.331572 2.095452 0.786008 0.029335 0.617520 1
-0.320610 -0.414659 1.710442 0.898742 0.373504 0.229690 2
-0.329918 -0.398546 1.719170 0.889496 0.398602 0.223412 2
-0.331245 -0.405031 1.738152 0.904887 0.385980 0.179443 2
-0.498741 0.309080 2.071373 0.826017 -0.017246 0.563381 1
-0.491203 0.310759 2.061852 0.739292 -0.054354 0.671188 1
-0.337883 -0.399156 1.761132 0.915603 0.365410 0.167770 2
-0.341240 -0.396318 1.773217 0.927209 0.325456 0.185369 2
-0.481865 0.295027 2.050164 0.758949 -0.064104 0.647987 1
-0.478264 0.300230 2.046166 0.824864 -0.011018 0.565224 1
-0.473732 0.296965 2.039605 0.820854 0.041620 0.569619 1
-0.469444 0.293501 2.033989 0.790250 0.061280 0.609713 1
-0.465584 0.289686 2.029717 0.769595 0.142077 0.622526 1
-0.345131 -0.393114 1.781670 0.873485 0.350287 0.338117 2
-0.457359 0.282530 2.021294 0.776068 0.155085 0.611283 1
-0.452904 0.279036 2.016167 0.815204 0.103030 0.569936 1
-0.448463 0.275618 2.009820 0.836037 -0.004047 0.548659 1
-0.444206 0.272139 2.002892 0.810565 -0.065210 0.582007 1
-0.440208 0.268660 1.997216 0.786585 -0.050922 0.615379 1
-0.436317 0.265181 1.992058 0.803711 -0.047646 0.593109 1
-0.353157 -0.386293 1.794304 0.883451 0.330567 0.332024 2
-0.432503 0.261717 1.986199 0.846612 -0.049878 0.529868 1
-0.424324 0.255064 1.972130 0.840057 -0.030071 0.541665 1
-0.356819 -0.383180 1.803551 0.959912 0.196516 0.199876 2
-0.420235 0.251555 1.966485 0.787443 0.009638 0.616312 1
-0.412132 0.244429 1.957055 0.767625 -0.026608 0.640347 1
-0.359245 -0.380861 1.821740 0.994524 0.061389 0.084575 2
-0.404381 0.237532 1.945702 0.912702 -0.128571 0.387872 1
-0.401497 0.234602 1.934075 0.966766 -0.211495 0.143641 2
-0.400078 0.225035 1.899102 0.974400 -0.197532 0.107355 2
-0.397469 0.230833 1.887688 0.965679 -0.210622 0.151996 2
-0.394783 0.228178 1.872307 0.931144 -0.154776 0.330174 2
-0.387474 0.221907 1.852807 0.942865 -0.056126 0.328415 2
-0.384010 0.219130 1.840203 0.972121 0.017450 0.233828 2
-0.381020 0.216444 1.825951 0.981500 -0.114947 0.153120 2
-0.378914 0.214400 1.804924 0.929695 -0.366624 0.035400 2
-0.378838 0.213682 1.768975 0.856561 -0.512908 0.056830 2
-0.376961 0.211760 1.746392 0.887393 -0.357367 0.291244 2
-0.363411 -0.376863 1.865227 0.957397 0.179686 0.226060 1
-0.369820 0.205565 1.726708 0.935041 -0.215023 0.281891 2
-0.367104 -0.373689 1.874138 0.912659 0.160618 0.375838 1
-0.365242 0.201140 1.688134 0.924285 -0.349151 0.154244 2
-0.362602 0.198561 1.672081 0.932741 -0.267968 0.241222 2
-0.359337 0.195601 1.660851 0.960108 -0.093380 0.263578 2
-0.356300 0.192808 1.647545 0.986450 0.008405 0.163847 2
-0.353584 0.190504 1.629326 0.990057 0.036190 0.135935 2
-0.351158 0.188231 1.610222 0.981612 -0.087885 0.169455 2
-0.348228 0.185576 1.595726 0.949662 -0.103227 0.295781 2
-0.344688 0.182493 1.585747 0.950176 -0.052511 0.307259 2
-0.341423 0.179625 1.573601 0.976776 -0.153935 0.149037 2
-0.339806 0.177855 1.549126 0.975047 -0.217344 0.045212 2
-0.339210 0.176832 1.516869 0.975507 -0.211352 0.060957 2
-0.337852 0.167082 1.483483 0.968409 -0.220620 0.116235 2
-0.379112 -0.363481 1.893853 0.795471 -0.107390 0.596400 1
-0.332893 0.170561 1.454369 0.930939 -0.338791 0.136284 2
-0.331306 0.168837 1.429589 0.945014 -0.323653 0.046879 2
-0.330864 0.167876 1.396294 0.949081 -0.310535 0.053046 2
-0.328911 0.165892 1.374352 0.950363 -0.234328 0.204698 2
-0.325340 0.162749 1.365075 0.889950 -0.125568 0.438431 2
-0.321602 0.159483 1.358300 0.906026 -0.171716 0.386821 2
-0.318367 0.156660 1.345757 0.935299 -0.307821 0.174532 2
-0.316490 0.154799 1.321862 0.894835 -0.437906 0.086656 2
-0.315193 0.153242 1.294671 0.898795 -0.425510 0.105392 2
-0.312981 0.151091 1.275841 0.894740 -0.383395 0.229016 2
-0.309486 0.147932 1.264794 0.886575 -0.156377 0.435353 2
-0.305382 0.144636 1.257470 0.847595 -0.068058 0.526261 2
-0.301384 0.141234 1.250878 0.834461 -0.146997 0.531099 2
-0.297600 0.137923 1.243279 0.797288 -0.376452 0.471823 2
-0.293892 0.134764 1.234307 0.835333 -0.310678 0.453538 2
-0.290321 0.131666 1.224450 0.957050 -0.125952 0.261137 2
-0.287407 0.129027 1.209679 0.990706 -0.063017 0.120541 2
-0.285728 0.127211 1.185814 0.997035 -0.045898 0.061761 2
-0.284325 0.125609 1.159600 0.995496 -0.064388 0.069578 2
-0.282906 0.123991 1.133568 0.962728 -0.266929 0.043633 2
-0.282036 0.122771 1.103447 0.933689 -0.350820 0.071766 2
-0.280144 0.120817 1.081017 0.913735 -0.367290 0.173741 2
-0.383232 -0.360033 1.899559 0.762495 -0.050180 0.645045 1
-0.270515 0.112257 1.043725 0.960719 -0.160937 0.226095 2
-0.264610 0.106901 1.015526 0.955795 -0.173833 0.237143 2
-0.261635 0.104155 1.001549 0.943544 -0.221523 0.246275 2
-0.258644 0.101500 0.986626 0.960914 -0.171078 0.217662 2
-0.255730 0.098906 0.971215 0.961635 -0.155672 0.225886 2
-0.252617 0.096129 0.957757 0.940696 -0.182140 0.286209 2
-0.249336 0.093245 0.945885 0.922029 -0.282684 0.264484 2
-0.243339 0.087797 0.917809 0.911471 -0.310674 0.269635 2
-0.388145 -0.347826 1.906121 0.781104 -0.101117 0.616159 1
-0.240089 0.084914 0.905632 0.932129 -0.235176 0.275370 2
-0.237083 0.082228 0.891442 0.969372 -0.163872 0.182930 2
-0.234657 0.079893 0.873162 0.964327 -0.199508 0.173984 2
-0.231895 0.077391 0.857140 0.955999 -0.214601 0.200032 2
-0.229164 0.074873 0.840966 0.941644 -0.294846 0.162396 2
-0.226906 0.072661 0.821434 0.943882 -0.292673 0.153064 2
-0.224403 0.070296 0.803521 0.981347 -0.139772 0.131992 2
-0.395760 -0.349519 1.915886 0.804565 -0.121423 0.581318 1
-0.220665 0.066435 0.758355 0.997391 0.005961 0.071945 2
-0.218803 0.064543 0.735436 0.987374 -0.094717 0.126968 2
-0.216225 0.062132 0.718194 0.941487 -0.247095 0.229232 2
-0.213112 0.059309 0.705315 0.949392 -0.219179 0.224978 2
-0.210548 0.056898 0.687951 0.979087 -0.155374 0.131332 2
-0.208565 0.054930 0.665917 0.989007 -0.066040 0.132304 2
-0.205849 0.052428 0.649559 0.977584 0.005822 0.210465 2
-0.202400 0.049422 0.638878 0.957429 -0.010454 0.288479 2
-0.199196 0.046553 0.626458 0.964985 -0.169739 0.199983 2
-0.196709 0.044203 0.608422 0.953753 -0.246383 0.172190 2
-0.194008 0.041701 0.592064 0.964975 -0.146065 0.217917 2
-0.190880 0.038924 0.578911 0.976657 -0.015201 0.214266 2
-0.188011 0.036299 0.563927 0.991564 0.029595 0.126191 2
-0.185768 0.034102 0.544152 0.984138 0.137040 0.112658 2
-0.180809 0.029417 0.508080 0.982081 0.125183 0.140879 2
-0.177910 0.026778 0.493279 0.964814 0.004145 0.262899 2
-0.174339 0.023680 0.483513 0.928389 -0.100326 0.357810 2
-0.170860 0.020613 0.473259 0.964389 -0.164101 0.207425 2
-0.168877 0.018629 0.451165 0.982442 -0.169651 0.077623 2
-0.167473 0.017058 0.424889 0.972047 -0.221399 0.078152 2
-0.165550 0.015074 0.402764 0.977349 -0.191115 0.090911 2
-0.163979 0.013365 0.377892 0.990623 -0.117392 0.069898 2
-0.162697 0.011854 0.350823 0.995740 -0.013270 0.091242 2
-0.160042 0.009367 0.334130 0.976739 0.051710 0.208105 2
-0.156609 0.006377 0.323235 0.968995 -0.116572 0.217851 2
-0.154030 0.003950 0.306054 0.922073 -0.375378 0.094189 2
-0.404015 -0.342684 1.928185 0.738704 -0.032694 0.673236 1
-0.150291 0.000166 0.260247 0.961760 -0.046389 0.269938 2
-0.146309 -0.003389 0.255394 0.814214 0.407070 0.413943 2
-0.142326 -0.006990 0.250756 0.949167 0.188653 0.251974 2
-0.139519 -0.009447 0.235192 0.991514 -0.080843 0.101808 2
-0.409004 -0.330278 1.932824 0.711329 0.022278 0.702506 1
-0.133476 -0.015321 0.167412 0.976471 -0.089871 0.196027 2
-0.130211 -0.018190 0.155083 0.935975 0.001651 0.352062 2
-0.126244 -0.021562 0.148278 0.868333 0.107735 0.484139 2
-0.122337 -0.024904 0.141076 0.942959 0.148636 0.297887 2
-0.118996 -0.027803 0.129357 0.979855 0.106684 0.168826 2
-0.116646 -0.030092 0.110497 0.997479 0.028737 0.064883 3
-0.116280 -0.038515 0.106316 0.998470 -0.002309 0.055241 3
-0.114174 -0.033037 0.055565 0.995116 0.071988 0.067535 3
-0.111916 -0.035249 0.036004 0.992580 0.023453 0.119312 3
-0.109474 -0.037569 0.017601 0.961039 -0.254934 0.106829 3
-0.105156 -0.041795 -0.023323 0.828833 -0.489239 0.271442 3
-0.102028 -0.044634 -0.036262 0.820591 -0.462978 0.335085 3
-0.098488 -0.047685 -0.046424 0.883255 -0.350590 0.311364 3
-0.095833 -0.050173 -0.063087 0.973819 -0.221462 0.051287 3
-0.096062 -0.050661 -0.101417 0.971828 -0.234737 -0.021201 3
-0.097450 -0.050295 -0.148689 0.983383 -0.177525 0.037991 3
-0.094566 -0.052934 -0.163581 0.961295 0.139641 0.237514 3
-0.090614 -0.056322 -0.170478 0.943742 0.223148 0.244042 3
-0.089027 -0.049852 -0.188453 0.955041 0.241916 0.171389 3
-0.087852 -0.058855 -0.186347 0.980270 0.128647 0.150071 3
-0.093498 -0.056856 -0.338996 0.989305 0.145550 -0.009571 3
-0.095009 -0.057054 -0.423896 0.952934 0.286065 0.100417 3
-0.092186 -0.059664 -0.439216 0.933274 0.339793 0.116363 3
-0.437080 -0.314485 1.969994 0.716328 -0.001832 0.697762 1
-0.429375 -0.312990 1.962121 0.749982 -0.060861 0.658652 1
-0.441490 -0.310838 1.973839 0.701949 0.064279 0.709321 1
-0.445808 -0.307222 1.977929 0.728395 0.030535 0.684477 1
-0.449959 -0.303743 1.983391 0.853275 -0.029527 0.520624 1
-0.453926 -0.300493 1.991295 0.906484 -0.067848 0.416754 1
-0.461540 -0.294176 2.009911 0.887583 -0.014266 0.460427 1
-0.466301 -0.282167 2.017693 0.833156 0.019510 0.552694 1
-0.469673 -0.287355 2.021813 0.767084 -0.064993 0.638246 1
-0.478416 -0.280321 2.033226 0.769890 -0.106935 0.629154 1
-0.486427 -0.273485 2.045281 0.819358 0.066165 0.569452 1
