0.192566 -0.149671 -0.256663 -0.440255 0.895591 0.063969 3
0.197983 -0.146848 -0.255411 -0.481992 0.872997 0.074565 3
0.227524 -0.160177 -0.086405 -0.339712 0.918735 0.201301 2
0.227295 -0.155157 -0.101298 0.016506 0.934858 0.354637 2
0.221207 -0.162816 -0.082621 -0.210376 0.928738 0.305266 2
0.296570 -0.116285 0.049215 -0.803146 0.534851 0.262470 2
0.287445 -0.122297 0.037100 -0.783691 0.579453 0.223745 2
0.292725 -0.124418 0.055258 -0.700455 0.688675 0.187324 2
0.129761 -0.282941 0.611227 0.397121 0.733999 0.550946 2
0.122254 -0.285444 0.620046 0.570251 0.572513 0.589104 2
0.131729 -0.287977 0.614340 0.588031 0.446423 0.674483 2
0.136643 -0.279973 0.603750 0.410777 0.678805 0.608676 2
0.197540 -0.449293 0.460348 0.774672 -0.173514 0.608092 1
0.193909 -0.443509 0.466268 0.790032 -0.238726 0.564676 1
0.189835 -0.451482 0.468710 0.761846 -0.220342 0.609130 1
0.181702 -0.453718 0.478445 0.786659 -0.222127 0.576044 1
0.142853 -0.515905 0.523397 0.824851 -0.195346 0.530529 1
0.146393 -0.507795 0.521322 0.804717 -0.195332 0.560604 1
0.127792 -0.521100 0.543844 0.830449 -0.138663 0.539562 1
0.295838 -0.514539 0.268698 0.673854 -0.415945 0.610664 1
0.291733 -0.508497 0.275778 0.693780 -0.290142 0.659156 1
0.289459 -0.517248 0.273336 0.735988 -0.353458 0.577399 1
0.266678 0.080264 -0.666544 -0.996158 -0.086803 -0.011629 3
0.315750 -0.019666 -0.212137 -0.934871 0.344302 0.086448 2
0.316239 -0.014776 -0.231425 -0.936461 0.343210 0.072441 2
0.176056 -0.180051 -0.098459 -0.368817 0.927157 0.065980 2
0.165283 -0.186735 -0.053416 -0.387074 0.916569 0.100377 2
-0.041672 -0.379667 0.891592 0.806801 -0.260935 0.530080 1
-0.044372 -0.388074 0.890920 0.816268 -0.262286 0.514697 1
-0.034622 -0.377340 0.881216 0.840730 -0.180150 0.510606 1
0.131226 -0.512617 0.540853 0.813844 -0.146348 0.562352 1
-0.229034 -0.637296 1.082937 0.798268 -0.369510 0.475637 1
-0.240738 -0.633878 1.102529 0.770197 -0.352209 0.531738 1
-0.236206 -0.639791 1.093862 0.845321 -0.119621 0.520695 1
0.298401 -0.506101 0.269735 0.764186 -0.145216 0.628436 1
0.284790 -0.511487 0.282125 0.804741 -0.216880 0.552589 1
0.281891 -0.624982 0.227255 0.869003 -0.109844 0.482461 1
0.273789 -0.627241 0.241171 0.846261 -0.174850 0.503259 1
0.278458 -0.633184 0.230856 0.862762 -0.166345 0.477464 1
0.305405 -0.640867 0.174642 0.835886 -0.333206 0.436197 1
0.299744 -0.634702 0.190511 0.853890 -0.283976 0.436153 1
0.297302 -0.643125 0.188589 0.837894 -0.347191 0.421180 1
0.312927 0.142108 -0.183329 -0.865960 -0.487776 0.110402 2
0.312027 0.138316 -0.210306 -0.867056 -0.486955 0.105307 2
0.314819 0.132746 -0.210825 -0.891393 -0.439454 0.110902 2
0.221665 -0.053129 -0.887552 -0.651099 0.758966 0.006329 3
0.217880 -0.056287 -0.898081 -0.710237 0.703745 0.017521 3
0.216477 -0.057020 -0.842081 -0.771750 0.635925 0.000952 3
0.227829 -0.049703 -0.491038 -0.487495 0.631191 0.603280 3
0.226288 -0.044408 -0.498453 -0.666555 0.664920 0.337024 3
0.288239 -0.025770 -0.372874 -0.921217 0.332216 0.202464 3
0.285446 -0.034154 -0.370615 -0.912641 0.341160 0.225158 3
0.171188 -0.184011 -0.054880 -0.379289 0.920540 0.093520 2
0.159638 -0.189519 -0.053293 -0.414343 0.893702 0.172097 2
0.369751 -0.144895 0.255239 0.862945 -0.189799 0.468297 1
0.381149 -0.148305 0.233022 0.856849 -0.226308 0.463243 1
0.099136 -0.286580 0.642111 0.527565 0.467860 0.709071 2
0.090058 -0.283483 0.646536 0.390927 0.657956 0.643638 2
0.092148 -0.289052 0.649832 0.515999 0.621958 0.588993 2
-0.042877 -0.365743 0.899069 0.837258 -0.177913 0.517055 1
0.229950 -0.343976 0.442129 0.843644 -0.070235 0.532290 1
0.226074 -0.351980 0.446981 0.843529 -0.125944 0.522109 1
0.237763 -0.355550 0.428579 0.840245 -0.093294 0.534121 1
-0.248093 -0.636342 1.111990 0.820006 -0.203037 0.535132 1
-0.229599 -0.659498 1.067007 0.831887 -0.416607 0.366609 1
-0.074356 -0.650113 0.814840 0.897092 -0.202922 0.392491 1
-0.070053 -0.642080 0.807577 0.905028 -0.114974 0.409519 1
-0.084198 -0.651899 0.838552 0.893773 -0.235492 0.381725 1
0.390488 -0.509817 0.104879 0.788801 -0.384159 0.479807 1
0.377945 -0.506170 0.127767 0.786484 -0.399513 0.470991 1
0.388321 -0.518293 0.101522 0.803450 -0.352906 0.479505 1
-0.164291 -0.710569 0.914694 0.878757 -0.207210 0.429941 1
-0.179687 -0.706167 0.951345 0.832550 -0.346271 0.432385 1
-0.173981 -0.712339 0.935262 0.890189 -0.176936 0.419830 1
0.406906 -0.528196 0.060812 0.903181 -0.132787 0.408206 1
0.294586 -0.628652 0.203542 0.864065 -0.181747 0.469426 1
0.298126 -0.620443 0.199209 0.859413 -0.114032 0.498404 1
0.310623 0.134364 -0.236674 -0.872951 -0.465699 0.145193 2
0.309586 0.067790 -0.322428 -0.984273 -0.027762 0.174460 3
0.310928 0.076281 -0.315806 -0.978185 -0.025756 0.206133 2
0.231888 -0.031667 -0.530497 -0.862265 0.506343 -0.010744 3
0.230362 -0.036329 -0.505717 -0.763167 0.624243 0.167023 3
0.292938 -0.027807 -0.351664 -0.916038 0.334280 0.221657 3
0.202088 -0.170690 -0.070170 -0.104318 0.941539 0.320346 2
0.194367 -0.168050 -0.074534 -0.202824 0.837286 0.507755 2
0.195542 -0.173276 -0.065012 -0.211502 0.921759 0.325005 2
0.189591 -0.176000 -0.063242 -0.370395 0.881887 0.291688 2
0.215958 -0.210340 0.456533 0.184848 0.462633 0.867065 1
0.209656 -0.213567 0.458822 0.093771 0.465529 0.880051 1
0.217514 -0.215444 0.457693 0.388067 0.158563 0.907889 1
0.084839 -0.291524 0.659231 0.496571 0.688656 0.528365 2
0.020645 -0.305608 0.799948 0.723415 0.506372 0.469316 1
0.012711 -0.307905 0.812887 0.762644 0.393365 0.513457 1
0.136597 -0.334890 0.600637 0.795759 -0.344501 0.498083 1
0.131561 -0.328710 0.614828 0.786734 -0.391081 0.477604 1
0.138764 -0.326253 0.604238 0.827881 -0.331401 0.452533 1
0.222626 -0.360158 0.450033 0.839895 -0.139866 0.524418 1
0.255219 -0.393010 0.392843 0.799970 -0.133453 0.585011 1
0.245667 -0.403753 0.402517 0.798169 -0.203212 0.567126 1
0.483231 -0.408239 -0.010935 0.822154 -0.333448 0.461383 1
0.476380 -0.410787 -0.001749 0.779462 -0.294267 0.553033 1
0.481766 -0.416852 -0.014994 0.839637 -0.340504 0.423162 1
0.489960 -0.414602 -0.030527 0.836244 -0.377064 0.398144 1
-0.089630 -0.645887 0.853262 0.900570 -0.105365 0.421748 1
-0.161819 -0.702154 0.916555 0.828606 -0.386988 0.404540 1
-0.183121 -0.714353 0.953024 0.871723 -0.196651 0.448807 1
0.099152 -0.704603 0.479757 0.852793 -0.326112 0.407917 1
0.090286 -0.706701 0.498007 0.879142 -0.286408 0.380893 1
0.096146 -0.712896 0.481008 0.883974 -0.195132 0.424869 1
0.252930 0.001849 -0.906107 -0.962120 0.259485 -0.083625 3
0.255509 -0.002637 -0.952555 -0.921690 0.385345 -0.044694 3
0.250260 -0.006521 -0.906809 -0.934012 0.350103 -0.071066 3
0.221954 -0.050252 -0.809305 -0.712586 0.701384 0.016770 3
0.219742 -0.053754 -0.828745 -0.787135 0.616766 0.004211 3
0.216553 -0.058057 -0.794626 -0.777084 0.629223 -0.014786 3
0.226654 -0.039510 -0.516611 -0.780016 0.624541 0.039036 3
0.301285 -0.061490 -0.205454 -0.939902 0.301042 0.161113 2
0.303772 -0.053197 -0.207255 -0.925098 0.359750 0.121549 2
0.211685 -0.218770 0.460195 0.314131 0.225767 0.922145 1
-0.042251 -0.328924 0.913198 0.819502 -0.278893 0.500634 1
0.044418 -0.368001 0.756429 0.818791 -0.345051 0.458825 1
0.057968 -0.371908 0.728231 0.832168 -0.317494 0.454637 1
0.231506 -0.408719 0.420309 0.816170 -0.156646 0.556173 1
0.195252 -0.499601 0.451315 0.843343 -0.044831 0.535502 1
0.386612 -0.458333 0.137808 0.889601 -0.114698 0.442103 1
-0.077072 -0.658483 0.815634 0.872643 -0.296584 0.387984 1
0.349960 -0.566831 0.144277 0.890313 -0.241718 0.385895 1
0.344437 -0.560705 0.159292 0.816899 -0.282928 0.502621 1
0.342240 -0.569166 0.156027 0.745475 -0.434701 0.505275 1
0.573197 -0.516599 -0.224528 0.797167 -0.328409 0.506628 1
0.568146 -0.510572 -0.212076 0.828840 -0.285214 0.481329 1
0.565506 -0.518941 -0.212870 0.837956 -0.287788 0.463689 1
-0.107513 -0.745389 0.801962 0.809008 -0.303397 0.503444 1
-0.127914 -0.744016 0.836538 0.843978 -0.241856 0.478756 1
-0.122787 -0.750066 0.823995 0.816537 -0.307035 0.488872 1
-0.109909 -0.730939 0.814626 0.801336 -0.313646 0.509398 1
-0.086059 -0.737958 0.776113 0.758359 -0.456944 0.464859 1
-0.091293 -0.731870 0.789327 0.734963 -0.425743 0.527800 1
-0.093262 -0.740423 0.784841 0.745709 -0.437152 0.502809 1
-0.098114 -0.734426 0.796133 0.726422 -0.409557 0.551883 1
0.232453 -0.738691 0.238485 0.817667 -0.309040 0.485710 1
0.227753 -0.732725 0.248861 0.788069 -0.300074 0.537497 1
0.225006 -0.741094 0.248739 0.805500 -0.243607 0.540209 1
0.235108 -0.730306 0.239187 0.801524 -0.329829 0.498770 1
0.249451 0.005648 -1.030436 -0.888486 0.458903 0.000660 3
0.248230 0.001940 -1.055369 -0.908799 0.414893 -0.044132 3
0.245590 -0.002477 -1.024332 -0.928269 0.371888 0.003941 3
0.218475 -0.054510 -0.773569 -0.812509 0.582457 -0.023946 3
0.351212 0.040110 -0.088572 -0.991977 0.072683 0.103438 2
0.349060 0.036601 -0.108256 -0.991817 0.098700 0.080978 2
0.352509 0.048777 -0.080118 -0.990230 -0.019326 0.138099 2
0.293701 -0.088735 -0.111429 -0.759611 0.625005 0.179889 2
0.294693 -0.083890 -0.134104 -0.835290 0.548196 0.042082 2
0.289826 -0.091878 -0.121470 -0.818690 0.570528 0.065146 2
0.298157 -0.080694 -0.121134 -0.794004 0.592523 0.135922 2
0.210831 -0.189489 0.024740 -0.548185 0.832903 0.075938 2
0.371872 -0.122587 0.256185 0.851455 -0.094687 0.515809 1
0.364624 -0.125020 0.268087 0.866445 -0.044677 0.497269 1
0.189087 -0.258466 0.509329 0.621305 0.478308 0.620646 1
0.120621 -0.325658 0.633138 0.818575 -0.181176 0.545078 1
0.112732 -0.328077 0.645620 0.874073 -0.086518 0.478029 1
0.116989 -0.333799 0.635458 0.865459 -0.241060 0.439170 1
0.565079 -0.436414 -0.165446 0.828806 -0.277276 0.486003 1
0.554138 -0.424146 -0.137430 0.855567 -0.209388 0.473458 1
0.551926 -0.432622 -0.139597 0.790507 -0.377050 0.482631 1
0.493118 -0.465925 -0.061655 0.829657 -0.166770 0.532783 1
0.482697 -0.476644 -0.049875 0.825575 -0.196365 0.529025 1
0.491440 -0.488416 -0.066752 0.825786 -0.185435 0.532627 1
0.501892 -0.477720 -0.078379 0.827529 -0.187710 0.529113 1
0.505173 -0.469465 -0.081492 0.845762 -0.117004 0.520573 1
0.320282 -0.576459 0.184500 0.874597 -0.232667 0.425379 1
0.311676 -0.578618 0.201254 0.864886 -0.217220 0.452535 1
0.305725 -0.595243 0.203451 0.837941 -0.249154 0.485568 1
0.319473 0.077601 -0.280497 -0.960319 -0.160795 0.227888 2
0.314240 0.079539 -0.300913 -0.964510 -0.142186 0.222496 2
0.316223 0.074259 -0.295420 -0.966402 -0.077493 0.245074 2
0.091904 -0.126211 -0.455302 0.099034 0.866895 0.488554 3
0.085892 -0.128911 -0.453196 -0.280400 0.812296 0.511421 3
0.093155 -0.131444 -0.446268 0.140624 0.868592 0.475155 3
0.100510 -0.129033 -0.455942 0.466584 0.746222 0.474819 3
0.292130 -0.087232 -0.153025 -0.845941 0.533131 0.012435 2
0.274155 -0.109426 -0.143870 -0.728676 0.678012 0.096603 2
0.270096 -0.112539 -0.152781 -0.735630 0.666097 0.123140 2
0.273148 -0.114194 -0.122019 -0.734415 0.673723 0.082052 2
0.190262 -0.202039 0.061544 -0.240931 0.968918 0.056121 2
0.173874 -0.207555 0.138418 -0.319071 0.947705 0.007044 2
0.169968 -0.255620 0.497518 -0.275568 0.957049 0.090104 1
0.127381 -0.323041 0.625295 0.789439 -0.232316 0.568168 1
0.244629 -0.338918 0.420370 0.853239 -0.121685 0.507126 1
0.237274 -0.341459 0.431295 0.830983 -0.096534 0.547858 1
0.323136 -0.462751 0.242483 0.804926 -0.275366 0.525612 1
0.315109 -0.465116 0.254934 0.871195 -0.228181 0.434687 1
0.320664 -0.471235 0.240865 0.804054 -0.333912 0.491935 1
0.335358 -0.466359 0.222006 0.782729 -0.347886 0.516053 1
-0.280639 -0.668134 1.153402 0.835027 -0.236344 0.496862 1
-0.278488 -0.682416 1.141989 0.800667 -0.317599 0.508000 1
-0.263229 -0.677732 1.120138 0.827951 -0.280554 0.485579 1
-0.071136 -0.733213 0.755789 0.781553 -0.413567 0.467052 1
0.470123 -0.606099 -0.086466 0.836256 -0.222799 0.501035 1
0.467011 -0.614377 -0.084696 0.872309 -0.188854 0.451010 1
0.475342 -0.612172 -0.099833 0.810429 -0.360731 0.461604 1
0.253800 0.078395 -1.248972 -0.988837 0.084323 0.122846 3
0.265350 0.050814 -0.786112 -0.990642 -0.015921 0.135552 3
0.261643 0.047618 -0.797190 -0.969200 0.175445 0.172830 3
0.331741 0.103808 -0.174113 -0.941436 -0.168453 0.292098 2
0.328980 0.100260 -0.191874 -0.982700 -0.138132 0.123373 2
0.178833 -0.088979 -0.500437 -0.422322 0.872319 0.246382 3
0.179917 -0.084234 -0.522745 -0.542012 0.840081 0.022079 3
0.184586 -0.081258 -0.517222 -0.559309 0.826897 0.058437 3
0.184845 -0.125089 -0.421519 -0.287095 0.816837 0.500353 3
0.185333 -0.130155 -0.408182 -0.428256 0.881025 0.200978 3
0.190521 -0.122304 -0.421763 -0.352540 0.857827 0.373964 3
0.186966 -0.158468 -0.192820 -0.314015 0.945325 0.088069 2
0.180618 -0.161092 -0.188761 -0.376385 0.922191 0.088874 2
0.183746 -0.162771 -0.158457 -0.433326 0.891752 0.130412 2
0.189789 -0.160070 -0.160715 -0.447540 0.892370 0.058168 2
0.201355 -0.196447 0.062643 -0.528207 0.848579 0.030193 2
0.202179 -0.197637 0.105886 -0.540894 0.836478 0.087962 2
0.296356 -0.143178 0.227011 -0.488251 0.814168 0.314232 2
0.328262 -0.220563 0.317098 0.893117 -0.123468 0.432547 1
0.036820 -0.430227 0.734884 0.863041 -0.141586 0.484885 1
0.032715 -0.424291 0.743276 0.827239 -0.111546 0.550665 1
0.019272 -0.503026 0.728811 0.872558 -0.225150 0.433531 1
0.024689 -0.509023 0.716329 0.850725 -0.244249 0.465413 1
0.312515 -0.473516 0.254873 0.869518 -0.275055 0.410224 1
0.310974 -0.496061 0.248556 0.872601 0.036564 0.487063 1
0.306961 -0.490217 0.256002 0.874403 -0.163338 0.456881 1
0.302429 -0.498220 0.264150 0.846177 -0.011926 0.532768 1
0.315247 -0.487989 0.241079 0.852474 -0.132640 0.505663 1
0.400574 -0.499051 0.094442 0.839814 -0.301949 0.451154 1
0.382080 -0.489179 0.135031 0.825721 -0.318536 0.465531 1
0.398041 -0.507444 0.093710 0.820731 -0.339833 0.459254 1
0.395249 -0.492933 0.107839 0.848823 -0.250138 0.465759 1
0.302231 -0.543821 0.236776 0.847564 -0.314878 0.427186 1
0.296890 -0.537755 0.250234 0.844686 -0.242203 0.477329 1
0.294006 -0.546064 0.251180 0.834508 -0.304788 0.459022 1
0.304642 -0.535413 0.238363 0.797732 -0.366050 0.479198 1
0.330490 0.118075 -0.165598 -0.841444 -0.476365 0.255044 2
0.333237 0.112498 -0.165842 -0.888475 -0.343663 0.304151 2
0.223480 -0.042798 -0.530588 -0.746795 0.665055 -0.000333 3
0.201553 -0.106801 -0.452341 -0.377958 0.880754 0.285344 3
0.201691 -0.111753 -0.437235 -0.451489 0.839315 0.302834 3
0.124100 -0.168935 -0.252573 -0.157447 0.958899 0.236058 3
0.117355 -0.171491 -0.246256 -0.015845 0.982383 0.186206 3
0.123001 -0.173681 -0.230173 -0.064150 0.985795 0.155221 3
0.129685 -0.171125 -0.236063 -0.230340 0.949639 0.212436 3
0.302445 -0.185560 0.362783 0.740652 0.036935 0.670873 1
0.318726 -0.222509 0.337332 0.889035 -0.135381 0.437365 1
0.316528 -0.382932 0.287832 0.857909 -0.165427 0.486442 1
-0.237533 -0.616369 1.114095 0.735981 -0.444901 0.510289 1
-0.242325 -0.610425 1.124899 0.701520 -0.386914 0.598471 1
-0.244293 -0.618924 1.120748 0.711611 -0.452783 0.537213 1
0.161728 -0.526067 0.485067 0.844712 -0.250641 0.472907 1
0.151062 -0.513746 0.511160 0.840943 -0.239760 0.485107 1
0.144791 -0.530515 0.514639 0.849151 -0.236119 0.472430 1
0.154114 -0.505521 0.510854 0.818729 -0.289318 0.495961 1
0.488266 -0.459897 -0.050699 0.851667 -0.244784 0.463404 1
0.482910 -0.453802 -0.036722 0.857739 -0.242912 0.453076 1
0.475052 -0.456106 -0.024210 0.826412 -0.294625 0.479832 1
0.491394 -0.451620 -0.052653 0.872324 -0.203857 0.444401 1
0.288819 -0.539998 0.263540 0.839804 -0.233350 0.490180 1
0.585571 -0.543050 -0.261729 0.769999 -0.451300 0.451032 1
0.579880 -0.536878 -0.245707 0.793949 -0.371219 0.481498 1
0.577835 -0.545392 -0.249857 0.805045 -0.394582 0.442953 1
0.444809 -0.658353 -0.069681 0.827413 -0.278881 0.487455 1
0.434494 -0.669095 -0.059000 0.814122 -0.274031 0.511969 1
0.439285 -0.675077 -0.069895 0.814954 -0.275684 0.509753 1
0.328003 0.139666 -0.095896 -0.916574 -0.371620 0.147616 2
0.325424 0.145091 -0.097941 -0.896994 -0.421390 0.133539 2
0.327149 0.136035 -0.120035 -0.908402 -0.407551 0.093319 2
0.334274 0.033824 -0.185312 -0.957064 0.089618 0.275677 2
0.332321 0.025248 -0.190592 -0.959321 0.074596 0.272285 2
0.113297 -0.175611 -0.207194 -0.033229 0.994289 0.101414 3
0.338486 -0.050641 0.018057 -0.888393 0.454406 0.065371 2
0.335968 -0.054075 0.000356 -0.884568 0.463148 0.055072 2
0.337769 -0.055463 0.038229 -0.905630 0.415151 0.086509 2
0.317948 -0.110937 0.119985 -0.863125 0.498477 0.080850 2
0.313522 -0.118940 0.129263 -0.793037 0.608759 0.022456 2
0.009720 -0.302305 0.813711 0.791318 0.395352 0.466383 1
-0.010467 -0.407476 0.827200 0.873068 -0.166202 0.458399 1
-0.015137 -0.401311 0.838125 0.844891 -0.243264 0.476426 1
-0.018326 -0.409673 0.840627 0.848865 -0.181547 0.496456 1
-0.007339 -0.399015 0.824880 0.866263 -0.236335 0.440152 1
0.437882 -0.399541 0.067800 0.839248 -0.184561 0.511468 1
0.426071 -0.395986 0.087362 0.826831 -0.292918 0.480156 1
0.433624 -0.393606 0.076498 0.849106 -0.204002 0.487239 1
0.273071 -0.521947 0.302450 0.902144 -0.179440 0.392350 1
0.264465 -0.523916 0.320425 0.846576 -0.323613 0.422591 1
0.279068 -0.528066 0.285757 0.873894 -0.232822 0.426736 1
-0.038605 -0.755964 0.668905 0.799958 -0.421326 0.427260 1
-0.045090 -0.749631 0.689382 0.839639 -0.387435 0.380659 1
-0.046860 -0.758191 0.683676 0.840787 -0.388195 0.377335 1
-0.036850 -0.747396 0.674703 0.794252 -0.425841 0.433386 1
0.204453 -0.071355 -0.853586 -0.666773 0.744695 0.029032 3
0.198929 -0.074163 -0.854227 -0.459268 0.884267 0.084523 3
0.198624 -0.079069 -0.836405 -0.688265 0.719894 0.089688 3
0.124542 -0.164045 -0.271219 -0.055693 0.978631 0.197941 3
0.332153 -0.062215 0.006246 -0.888697 0.450482 0.085347 2
0.001145 -0.304464 0.830312 0.802464 0.370403 0.467817 1
-0.025375 -0.389234 0.862234 0.830739 -0.225373 0.508999 1
-0.030746 -0.369153 0.877096 0.838773 -0.163611 0.519318 1
0.332840 -0.328237 0.271597 0.858952 -0.048325 0.509770 1
0.337525 -0.333913 0.262472 0.853712 -0.174943 0.490481 1
0.418045 -0.398260 0.101187 0.852795 -0.307749 0.421937 1
-0.109329 -0.584936 0.914663 0.792337 -0.326210 0.515548 1
0.570938 -0.419774 -0.167673 0.856652 -0.163597 0.489269 1
0.562744 -0.422010 -0.153239 0.865763 -0.221085 0.448973 1
-0.030945 -0.644292 0.747366 0.821003 -0.314662 0.476384 1
0.170120 -0.652036 0.396536 0.770106 -0.280199 0.573084 1
0.174439 -0.657911 0.388326 0.790863 -0.272655 0.547900 1
-0.054077 -0.751714 0.708303 0.841369 -0.390688 0.373445 1
0.302933 0.177294 -0.141306 -0.818239 -0.505991 0.272871 2
0.296509 0.179682 -0.152842 -0.791574 -0.507310 0.340657 2
0.299133 0.174014 -0.153361 -0.847131 -0.414571 0.332416 2
0.234177 -0.039029 -0.655070 -0.935179 0.346704 0.072360 3
0.136795 -0.112874 -0.469797 -0.612576 0.769482 0.180690 3
0.138657 -0.108282 -0.496500 -0.500747 0.858225 0.112706 3
0.131882 -0.115804 -0.473978 -0.578780 0.782385 0.229974 3
0.246414 -0.070577 -0.451578 -0.678754 0.679977 0.277351 3
0.311585 -0.066694 -0.117167 -0.711869 0.640877 0.287261 2
0.238495 -0.154554 -0.084696 -0.571574 0.816729 0.079100 2
0.239807 -0.149846 -0.108347 -0.517368 0.833900 0.192199 2
0.233399 -0.157445 -0.087748 -0.482648 0.867722 0.118786 2
0.312317 -0.119710 0.183981 -0.768783 0.639318 0.015675 2
0.255936 -0.291669 0.418844 0.848471 -0.149305 0.507746 1
0.252213 -0.286077 0.426016 0.853579 -0.085551 0.513890 1
0.248291 -0.294057 0.429952 0.809459 -0.194123 0.554159 1
0.260147 -0.283773 0.411764 0.877045 -0.046055 0.478196 1
0.293167 -0.426763 0.312643 0.817942 -0.116766 0.563326 1
0.288407 -0.420759 0.321401 0.838897 -0.175173 0.515330 1
0.285248 -0.428907 0.323080 0.804622 -0.241511 0.542454 1
-0.114822 -0.578748 0.927999 0.835692 -0.310737 0.452838 1
-0.028641 -0.553396 0.790670 0.829797 -0.267763 0.489632 1
-0.033478 -0.547338 0.801840 0.838785 -0.233213 0.491987 1
-0.041626 -0.549611 0.815695 0.859001 -0.238407 0.453078 1
0.177078 -0.649534 0.389089 0.766762 -0.339835 0.544599 1
0.263657 0.063120 -0.684061 -0.984017 0.169560 0.054407 3
0.238388 -0.030973 -0.663157 -0.833519 0.544828 0.091694 3
0.309525 -0.011526 -0.282969 -0.976496 0.127288 0.173935 2
0.309723 -0.123128 0.166799 -0.724544 0.689204 -0.005736 2
0.282791 -0.262868 0.376150 0.865609 -0.087923 0.492940 1
0.244904 -0.288289 0.436514 0.815261 -0.192605 0.546126 1
-0.099914 -0.514379 0.939779 0.831486 -0.256070 0.493009 1
0.210907 -0.444295 0.442220 0.831252 -0.013752 0.555726 1
0.207291 -0.452176 0.446737 0.784595 -0.245868 0.569175 1
0.218216 -0.441831 0.431082 0.824681 -0.045733 0.563747 1
0.580353 -0.394887 -0.177866 0.870253 -0.181155 0.458085 1
0.588242 -0.392576 -0.190592 0.836759 -0.250657 0.486833 1
-0.306366 -0.697477 1.187032 0.884250 -0.237033 0.402390 1
-0.302551 -0.712156 1.167562 0.864814 -0.305836 0.398198 1
-0.291015 -0.701658 1.149313 0.871876 -0.261252 0.414222 1
0.246903 -0.568891 0.311178 0.837484 -0.375123 0.397371 1
0.231751 -0.564710 0.348165 0.877886 -0.231851 0.419000 1
0.237183 -0.570821 0.333395 0.912920 -0.148895 0.380010 1
-0.098938 -0.711400 0.815786 0.669436 -0.483865 0.563676 1
-0.100235 -0.742933 0.792623 0.766051 -0.373708 0.522980 1
-0.105102 -0.736928 0.803762 0.761533 -0.361371 0.538031 1
0.221405 -0.046049 -0.998118 -0.812164 0.583356 -0.009219 3
0.224136 -0.045591 -1.061594 -0.806177 0.591246 -0.022534 3
0.218704 -0.049436 -1.014780 -0.768178 0.640212 -0.005641 3
0.191300 -0.088659 -0.491068 -0.361486 0.533784 0.764462 3
0.189484 -0.083303 -0.496897 -0.574192 0.705855 0.414816 3
0.182953 -0.119710 -0.426920 0.024054 0.681036 0.731855 3
0.249329 -0.159887 -0.001993 -0.808143 0.579974 0.102639 2
0.245422 -0.163030 -0.011729 -0.763962 0.623873 0.164759 2
0.243927 -0.167692 0.012777 -0.678700 0.734392 0.005925 2
0.166565 -0.207944 0.051870 -0.309727 0.948756 0.062697 2
0.159409 -0.210393 0.060446 -0.250011 0.966857 0.051793 2
0.052857 -0.280553 0.649099 0.070848 0.991222 0.111626 2
0.042969 -0.282445 0.673025 -0.012764 0.995314 0.095855 2
0.039093 -0.286611 0.711019 0.168500 0.974605 0.147488 2
0.182495 -0.260930 0.517843 0.622345 0.576187 0.529807 1
0.214844 -0.297880 0.476858 0.811232 -0.237254 0.534428 1
0.207840 -0.300481 0.486837 0.857676 -0.173627 0.483990 1
0.216980 -0.312185 0.466512 0.828959 -0.205821 0.520063 1
0.308960 -0.298040 0.323721 0.887199 -0.152211 0.435556 1
0.318619 -0.295720 0.305868 0.847942 -0.264656 0.459295 1
-0.034561 -0.436918 0.854543 0.813497 -0.240073 0.529706 1
-0.039032 -0.431028 0.864889 0.821029 -0.273528 0.501093 1
-0.039978 -0.453756 0.854666 0.798311 -0.247102 0.549218 1
-0.030838 -0.442838 0.847250 0.775547 -0.218248 0.592364 1
-0.099319 -0.528379 0.928823 0.825179 -0.287277 0.486366 1
-0.103943 -0.522069 0.941610 0.813190 -0.319274 0.486607 1
-0.107254 -0.530744 0.941091 0.821251 -0.299306 0.485759 1
0.204178 -0.446691 0.452078 0.810499 -0.051347 0.583485 1
-0.198532 -0.605024 1.051504 0.846681 -0.228518 0.480532 1
-0.308929 -0.705839 1.186941 0.856865 -0.312714 0.409868 1
0.153656 -0.587949 0.470083 0.801715 -0.281630 0.527198 1
0.148850 -0.581952 0.480856 0.830919 -0.290328 0.474640 1
0.146317 -0.590391 0.480001 0.816115 -0.318312 0.482321 1
0.220612 -0.052762 -1.105295 -0.836079 0.546879 -0.043526 3
0.219254 -0.056440 -1.129465 -0.749741 0.660854 -0.034046 3
0.215195 -0.056608 -1.058665 -0.805095 0.591455 -0.044752 3
0.244507 -0.157850 -0.022715 -0.766754 0.593719 0.244101 2
0.248795 -0.154798 -0.015116 -0.828084 0.518603 0.212902 2
0.365570 -0.139074 0.264730 0.882205 -0.101553 0.459784 1
0.362274 -0.147260 0.269125 0.890276 -0.133462 0.435428 1
0.372498 -0.136609 0.252767 0.865651 -0.087104 0.493013 1
0.019440 -0.290418 0.758383 0.279127 0.943073 0.180833 2
0.067276 -0.347394 0.722952 0.886783 -0.138316 0.441005 1
0.053314 -0.343580 0.753011 0.887298 -0.083128 0.453643 1
0.190018 -0.355123 0.504568 0.837895 -0.217977 0.500418 1
0.185211 -0.349119 0.516073 0.856974 -0.224026 0.464121 1
0.182099 -0.357381 0.517355 0.838413 -0.265435 0.476033 1
0.193665 -0.346975 0.501608 0.851554 -0.186076 0.490135 1
0.338089 -0.421247 0.236593 0.818513 -0.246385 0.518971 1
0.342621 -0.427251 0.227499 0.810141 -0.147913 0.567268 1
0.357208 -0.422346 0.207479 0.796518 -0.127511 0.591016 1
0.309433 -0.458959 0.269033 0.889402 -0.168841 0.424802 1
0.296875 -0.469274 0.292379 0.881928 -0.198371 0.427612 1
0.318375 -0.456800 0.252584 0.856866 -0.184801 0.481280 1
0.513123 -0.467161 -0.094523 0.855141 -0.217386 0.470615 1
0.509766 -0.475408 -0.090983 0.874617 -0.158924 0.458027 1
0.132950 -0.586568 0.506674 0.834061 -0.299214 0.463479 1
0.441864 -0.538556 0.007345 0.714786 -0.509140 0.479434 1
0.435471 -0.541181 0.011617 0.590553 -0.566827 0.574417 1
0.440689 -0.547239 -0.001749 0.697764 -0.516198 0.496654 1
0.253586 0.013720 -1.038065 -0.956778 0.288845 -0.033830 3
0.253266 0.009837 -1.068125 -0.913470 0.404268 -0.046270 3
0.246796 -0.017805 -0.759012 -0.766872 0.641727 -0.009647 3
0.248871 -0.013257 -0.786875 -0.885306 0.460316 0.065896 3
0.244232 -0.021222 -0.776346 -0.844382 0.535692 -0.007277 3
0.304123 0.037791 -0.373514 -0.991704 -0.080203 0.100456 3
0.302536 0.033908 -0.400187 -0.985030 -0.134274 0.108108 3
0.274765 -0.033674 -0.441416 -0.916159 0.270100 0.296139 3
0.270584 -0.036832 -0.449015 -0.872564 0.319200 0.369789 3
0.272186 -0.042158 -0.441477 -0.875862 0.402261 0.266556 3
0.232987 -0.099546 -0.406748 -0.649529 0.749414 0.128419 3
0.227493 -0.107320 -0.391489 -0.662314 0.740175 0.116111 3
0.221909 -0.131040 -0.279337 -0.557878 0.817832 0.141148 3
0.216919 -0.133962 -0.282969 -0.498249 0.860710 0.104528 3
0.220368 -0.135709 -0.254465 -0.381409 0.912956 0.145048 3
0.357025 -0.141233 0.281393 0.888911 -0.058891 0.454279 1
0.070984 -0.339292 0.717520 0.898161 -0.036139 0.438179 1
0.045136 -0.345815 0.766561 0.825177 -0.060467 0.561628 1
0.321228 -0.273771 0.309744 0.820830 -0.234256 0.520924 1
0.197846 -0.352826 0.492758 0.826033 -0.182439 0.533279 1
0.335266 -0.429639 0.237081 0.803581 -0.248221 0.540966 1
0.326386 -0.454557 0.240652 0.809133 -0.175064 0.560942 1
0.303818 -0.452657 0.283865 0.880028 -0.206404 0.427724 1
-0.253036 -0.735479 1.062521 0.854863 -0.282136 0.435440 1
-0.269348 -0.717161 1.106527 0.858913 -0.264241 0.438686 1
-0.267319 -0.731359 1.092733 0.841742 -0.307985 0.443415 1
-0.272446 -0.725309 1.106893 0.810088 -0.351575 0.469205 1
0.433884 -0.549779 0.004812 0.720435 -0.417367 0.553876 1
0.429230 -0.543828 0.015005 0.685935 -0.412978 0.599118 1
0.381760 -0.654004 0.047018 0.806405 -0.348169 0.478006 1
0.366730 -0.658773 0.068197 0.802907 -0.341727 0.488430 1
0.372040 -0.664861 0.054281 0.801390 -0.360788 0.477080 1
0.262726 0.081355 -1.091990 -0.975353 -0.217382 -0.037831 3
0.262528 0.076411 -1.074656 -0.975080 -0.217151 -0.045435 3
0.265183 0.071917 -1.121348 -0.993437 -0.113248 -0.016078 3
0.263382 0.077975 -0.729288 -0.995524 -0.066717 0.066943 3
0.262131 0.074298 -0.753397 -0.993008 -0.102503 0.058546 3
0.263260 0.069010 -0.745188 -0.989624 -0.139956 0.032494 3
0.313385 0.128916 -0.236826 -0.904971 -0.399019 0.147690 2
0.245972 -0.016599 -0.802378 -0.927026 0.373281 0.035847 3
0.301850 0.025660 -0.409830 -0.987826 0.073856 0.136914 3
0.328171 0.045947 -0.235728 -0.984276 0.109546 0.138564 2
0.267944 -0.045293 -0.448374 -0.847321 0.414398 0.332148 3
0.237518 -0.096532 -0.400584 -0.667943 0.738491 0.092106 3
0.233978 -0.094762 -0.428538 -0.625528 0.763535 0.160404 3
0.238190 -0.091695 -0.420420 -0.789626 0.594843 0.150506 3
0.214340 -0.138395 -0.252299 -0.407801 0.905271 0.119092 3
0.429657 -0.365148 0.097677 0.853474 -0.152847 0.498216 1
0.200882 -0.440977 0.456625 0.828605 -0.030979 0.558976 1
-0.006317 -0.523237 0.770223 0.854986 -0.298006 0.424489 1
0.276169 -0.454137 0.328115 0.850670 -0.074248 0.520430 1
0.269043 -0.470235 0.338064 0.861070 -0.116005 0.495078 1
0.081253 -0.520917 0.618032 0.770149 -0.272515 0.576720 1
0.086350 -0.526960 0.608602 0.704848 -0.362736 0.609600 1
-0.274429 -0.651510 1.149343 0.815179 -0.415831 0.403196 1
-0.280258 -0.645254 1.167745 0.773506 -0.438972 0.457156 1
-0.111893 -0.593404 0.913564 0.810848 -0.296784 0.504425 1
-0.119766 -0.595693 0.925314 0.829178 -0.301752 0.470542 1
-0.114639 -0.601797 0.913503 0.821884 -0.264023 0.504776 1
-0.099716 -0.596883 0.893026 0.792345 -0.326813 0.515154 1
-0.130432 -0.606321 0.938009 0.830270 -0.243767 0.501228 1
0.504303 -0.455358 -0.077555 0.820170 -0.177832 0.543781 1
-0.264129 -0.746099 1.077169 0.847150 -0.289426 0.445612 1
-0.269775 -0.739828 1.090902 0.815201 -0.340963 0.468180 1
0.479981 -0.595258 -0.094614 0.714572 -0.271768 0.644616 1
0.473145 -0.597791 -0.087870 0.752902 -0.227352 0.617616 1
0.484253 -0.601133 -0.102610 0.682388 -0.418998 0.598988 1
0.477478 -0.603673 -0.096201 0.746411 -0.380402 0.546045 1
0.379654 -0.662496 0.043112 0.813640 -0.361939 0.454961 1
0.364517 -0.667241 0.064993 0.832806 -0.311235 0.457785 1
0.263992 0.072886 -0.718119 -0.997297 0.059360 0.043312 3
0.261032 0.070597 -0.778269 -0.989094 -0.139114 0.048383 3
0.345841 0.084002 -0.107462 -0.994403 0.079387 0.069720 2
0.344299 0.080363 -0.130594 -0.996656 0.036301 0.073200 2
0.349991 0.122813 -0.036204 -0.993311 -0.083962 0.079269 2
0.347916 0.119288 -0.056284 -0.986335 -0.010558 0.164413 2
0.349045 0.114077 -0.046549 -0.989102 -0.025421 0.145023 2
0.351486 0.117526 -0.028513 -0.987336 -0.062840 0.145665 2
0.346344 0.110682 -0.063090 -0.980536 -0.113743 0.160034 2
0.178375 -0.216543 0.273031 -0.376761 0.682656 0.626124 2
0.162048 -0.211080 0.269247 -0.199281 0.225374 0.953674 2
0.164581 -0.216588 0.271078 -0.205658 0.229484 0.951337 2
0.313507 -0.175107 0.347341 0.849008 0.128102 0.512615 1
0.309631 -0.183156 0.354269 0.798669 0.066554 0.598079 1
0.306198 -0.177396 0.358541 0.786770 0.061026 0.614222 1
0.077377 -0.293813 0.670126 0.677603 0.601645 0.422940 2
0.068222 -0.295774 0.690359 0.778023 0.520463 0.351850 2
0.069901 -0.301259 0.696127 0.719011 0.597371 0.355207 2
0.077500 -0.432569 0.665121 0.775529 -0.391323 0.495400 1
0.072113 -0.426282 0.679647 0.777978 -0.395668 0.488055 1
0.063187 -0.437299 0.683035 0.771744 -0.400896 0.493654 1
0.426315 -0.373281 0.100698 0.859593 -0.197452 0.471288 1
0.185684 -0.459455 0.471090 0.791718 -0.217619 0.570810 1
0.202103 -0.468946 0.444418 0.766281 -0.263859 0.585826 1
0.264771 -0.464475 0.346761 0.855943 -0.120306 0.502879 1
0.078858 -0.529325 0.616842 0.818641 -0.261193 0.511473 1
-0.085541 -0.706289 0.803549 0.757679 -0.432934 0.488355 1
0.463333 -0.622541 -0.079569 0.867323 -0.121778 0.482618 1
0.263031 0.046458 -0.980540 -0.993096 -0.113764 -0.028616 3
0.262894 0.042521 -1.011637 -0.971442 0.236438 0.019909 3
0.264115 0.041255 -0.970560 -0.985023 -0.165528 0.048268 3
0.262070 0.037722 -0.990824 -0.900546 0.413041 0.135697 3
0.170838 -0.090246 -0.535105 -0.550700 0.834688 0.005044 3
0.165344 -0.093061 -0.535959 -0.452758 0.889877 0.055938 3
0.161652 -0.097265 -0.498972 -0.439599 0.895376 0.071092 3
0.159729 -0.095838 -0.536051 -0.415532 0.907282 0.064589 3
0.263779 -0.068319 -0.390055 -0.827642 0.538819 0.157106 3
0.263855 -0.063375 -0.406595 -0.844732 0.519807 0.127389 3
0.331741 0.044306 -0.203776 -0.981665 0.131769 0.137733 2
0.170212 -0.188779 -0.033274 -0.458173 0.862737 0.213923 2
0.156662 -0.213918 0.267874 -0.492064 0.110265 0.863548 2
0.078735 -0.299398 0.677267 0.545216 0.715104 0.437454 2
0.059723 -0.302976 0.722280 0.765207 0.541184 0.348681 2
0.090607 -0.399854 0.658193 0.846597 -0.188307 0.497809 1
0.077866 -0.396131 0.681234 0.853759 -0.178225 0.489215 1
0.087113 -0.408048 0.661550 0.865223 -0.146712 0.479443 1
0.069672 -0.398404 0.694967 0.856704 -0.165924 0.488393 1
0.211929 -0.407575 0.450765 0.827091 -0.167211 0.536619 1
0.216293 -0.413335 0.442190 0.806870 -0.212807 0.551066 1
-0.193115 -0.588056 1.050222 0.848215 -0.286994 0.445158 1
-0.195907 -0.596570 1.050741 0.854806 -0.233372 0.463513 1
0.226318 -0.535726 0.376913 0.790562 -0.379914 0.480288 1
0.219177 -0.538183 0.386404 0.786247 -0.399478 0.471416 1
-0.060425 -0.654012 0.786001 0.816419 -0.256197 0.517516 1
-0.068252 -0.656385 0.798055 0.864307 -0.249699 0.436606 1
-0.070633 -0.664785 0.797445 0.852877 -0.264361 0.450238 1
0.470795 -0.523794 -0.044779 0.847799 -0.187999 0.495876 1
0.462448 -0.526006 -0.029581 0.900996 -0.124148 0.415685 1
0.467682 -0.532087 -0.042917 0.866344 -0.245300 0.435058 1
0.458725 -0.534162 -0.024271 0.896083 -0.216808 0.387338 1
0.365326 -0.584974 0.105886 0.852436 -0.109734 0.511187 1
0.357758 -0.587354 0.116781 0.795887 -0.264735 0.544500 1
0.369675 -0.590856 0.097433 0.838378 -0.153975 0.522890 1
0.439835 -0.569906 -0.012247 0.812193 -0.307578 0.495719 1
0.264084 0.066149 -1.051066 -0.989927 -0.141576 0.001224 3
0.265045 0.066966 -1.104441 -0.997327 -0.070304 -0.019886 3
0.264649 0.062075 -1.086069 -0.999866 0.013596 -0.009139 3
0.262512 0.087268 -0.930918 -0.998959 -0.042216 -0.017302 3
0.262329 0.083354 -0.961710 -0.998366 -0.056817 0.006042 3
0.278565 0.048792 -0.463816 -0.746070 -0.138873 0.651225 3
0.142227 -0.115034 -0.452463 -0.724795 0.524607 0.446609 3
0.137543 -0.118001 -0.457926 -0.702994 0.583863 0.406083 3
0.211792 -0.091062 -0.478525 -0.531370 0.648297 0.545304 3
0.206635 -0.094419 -0.479014 -0.415402 0.767702 0.487929 3
0.212540 -0.096105 -0.467478 -0.485505 0.834509 0.260536 3
0.289490 -0.101789 -0.086954 -0.614593 0.757751 0.219292 2
0.229263 -0.166540 -0.032114 -0.446202 0.863307 0.235808 2
0.229859 -0.171644 -0.019388 -0.300083 0.904587 0.302776 2
0.176071 -0.186056 -0.034464 -0.296682 0.935960 0.189628 2
0.183762 -0.178724 -0.062174 -0.416619 0.897323 0.145737 2
0.164902 -0.191633 -0.035105 -0.510896 0.825179 0.240966 2
0.295670 -0.201978 0.370443 0.762458 -0.034002 0.646143 1
0.288330 -0.204435 0.379629 0.791146 -0.008672 0.611566 1
-0.068802 -0.417791 0.920431 0.856922 -0.197145 0.476255 1
-0.082840 -0.414113 0.947592 0.879678 -0.038970 0.473970 1
-0.077652 -0.420064 0.936331 0.902600 -0.075999 0.423718 1
-0.101822 -0.537237 0.928518 0.835074 -0.198147 0.513214 1
0.390976 -0.413625 0.144369 0.915284 -0.064190 0.397661 1
0.386597 -0.407728 0.154714 0.908452 -0.060775 0.413547 1
0.380463 -0.415410 0.171652 0.925318 -0.000322 0.379193 1
-0.066589 -0.588079 0.833700 0.818632 -0.359971 0.447506 1
-0.073334 -0.581540 0.853018 0.847037 -0.362772 0.388490 1
-0.075226 -0.590261 0.849294 0.861526 -0.321273 0.393136 1
-0.203735 -0.653386 1.020223 0.688127 -0.344461 0.638614 1
-0.206848 -0.661962 1.020864 0.776206 -0.140220 0.614689 1
-0.210647 -0.656019 1.027670 0.830009 -0.255515 0.495779 1
-0.089889 -0.631940 0.855337 0.878180 -0.176747 0.444477 1
-0.097900 -0.634267 0.868612 0.825512 -0.245077 0.508398 1
-0.093521 -0.640165 0.860372 0.860327 -0.072166 0.504608 1
-0.052963 -0.651632 0.775717 0.808746 -0.253819 0.530570 1
-0.050873 -0.665975 0.765951 0.814405 -0.256308 0.520625 1
0.366532 -0.599141 0.099569 0.803829 -0.226499 0.550052 1
0.126190 -0.749036 0.408132 0.829006 -0.315999 0.461404 1
0.118332 -0.751348 0.420645 0.834591 -0.327027 0.443296 1
0.121674 -0.765966 0.402181 0.823224 -0.328912 0.462730 1
0.110184 -0.753606 0.434896 0.841462 -0.317408 0.437256 1
0.306381 0.105235 -0.285990 -0.927321 -0.323079 0.188933 2
0.233475 -0.030698 -1.034922 -0.850548 0.525693 -0.014662 3
0.236344 -0.026327 -1.067240 -0.829545 0.557638 -0.029911 3
0.189209 -0.117063 -0.430430 0.010397 0.844302 0.535766 3
0.322357 -0.042051 -0.133280 -0.839983 0.459795 0.288128 2
0.253128 -0.109884 -0.232737 -0.931702 0.331740 0.147921 2
0.249542 -0.113088 -0.244333 -0.659091 0.748031 0.077779 2
0.264298 -0.169149 0.201376 -0.751356 0.653976 0.088199 2
0.180359 -0.226903 0.294027 -0.551436 0.771952 0.316242 2
0.175247 -0.229795 0.291067 -0.514548 0.807987 0.287050 2
0.174881 -0.234701 0.309286 -0.433280 0.888423 0.151568 2
0.180817 -0.231977 0.307607 -0.471299 0.818711 0.328008 2
0.169708 -0.232595 0.290518 -0.365986 0.891451 0.267152 2
0.206497 -0.221059 0.462332 0.084881 0.301284 0.949749 1
0.201615 -0.223310 0.462179 -0.426764 0.233182 0.873784 1
0.204102 -0.228895 0.464559 -0.197894 0.441534 0.875149 1
0.119385 -0.274061 0.606344 0.596792 0.693462 0.403670 2
0.110596 -0.276044 0.624929 0.632656 0.630527 0.449647 2
0.120453 -0.280263 0.614797 0.551077 0.695415 0.461208 2
0.112198 -0.282041 0.628622 0.664952 0.487063 0.566223 2
0.299759 -0.300352 0.342275 0.885577 -0.106334 0.452158 1
0.061417 -0.483053 0.664510 0.854616 -0.226546 0.467235 1
0.046433 -0.479017 0.695364 0.857735 -0.235978 0.456732 1
0.044647 -0.487501 0.693838 0.850885 -0.248658 0.462779 1
-0.248794 -0.613149 1.130453 0.745211 -0.344644 0.570860 1
-0.079773 -0.575330 0.874349 0.859572 -0.331307 0.389065 1
-0.172714 -0.680875 0.957968 0.854409 -0.285857 0.433902 1
-0.078934 -0.667035 0.812948 0.861443 -0.298010 0.411224 1
0.487961 -0.556219 -0.092966 0.795932 -0.227405 0.561053 1
0.480866 -0.558706 -0.084666 0.788815 -0.227312 0.571051 1
0.482041 -0.572858 -0.090922 0.782501 -0.184756 0.594607 1
-0.063492 -0.730848 0.744497 0.833280 -0.310663 0.457310 1
0.482681 -0.586889 -0.094187 0.775774 -0.162554 0.609713 1
0.475937 -0.589445 -0.087961 0.692729 -0.211936 0.689354 1
0.486847 -0.592748 -0.101603 0.811005 -0.117729 0.573071 1
0.469299 -0.592023 -0.082255 0.746431 -0.142472 0.650032 1
0.262863 0.042391 -0.787730 -0.921141 0.318030 0.224401 3
0.259140 0.039218 -0.798624 -0.974283 0.220480 0.046482 3
0.259491 0.034167 -0.784373 -0.915108 0.354445 0.192212 3
0.256668 0.030802 -0.800272 -0.946927 0.321141 0.014098 3
0.221253 -0.047307 -0.501871 -0.702528 0.690026 0.174122 3
0.285187 -0.064908 -0.223551 -0.437438 0.212991 0.873660 2
0.287628 -0.070386 -0.221873 -0.247939 0.289269 0.924581 2
0.321427 -0.082807 0.051443 -0.711225 0.701139 0.050628 2
0.315506 -0.090513 0.069235 -0.770734 0.633088 0.071885 2
0.265457 -0.152410 0.050375 -0.553554 0.826020 0.106161 2
0.259964 -0.155218 0.049551 -0.495997 0.864449 0.081949 2
0.365692 -0.295934 0.227529 0.777077 -0.170203 0.605956 1
0.207916 -0.365125 0.473501 0.844338 -0.142099 0.516625 1
0.486099 -0.445569 -0.039194 0.877692 -0.176964 0.445354 1
0.094589 -0.575368 0.578054 0.797869 -0.380830 0.467305 1
0.087235 -0.577848 0.588217 0.781292 -0.350767 0.516279 1
0.077927 -0.588773 0.593679 0.780298 -0.397779 0.482604 1
0.072586 -0.582662 0.606313 0.779457 -0.340176 0.526049 1
-0.045715 -0.649206 0.766256 0.780503 -0.345416 0.521059 1
-0.047821 -0.657689 0.764395 0.839741 -0.258922 0.477278 1
0.649262 -0.447240 -0.305063 0.869064 -0.191506 0.456128 1
0.654801 -0.453367 -0.320170 0.882012 -0.236876 0.407363 1
0.176895 -0.626638 0.405203 0.814176 -0.348030 0.464749 1
0.173523 -0.611997 0.423116 0.794228 -0.377424 0.476186 1
0.171585 -0.620542 0.418813 0.750654 -0.436200 0.496233 1
0.489411 -0.570432 -0.100687 0.840285 -0.207277 0.500956 1
0.477860 -0.566999 -0.083475 0.807145 -0.230572 0.543464 1
-0.055221 -0.728620 0.729818 0.857011 -0.311429 0.410541 1
-0.072784 -0.741796 0.749716 0.741920 -0.465507 0.482553 1
0.314133 0.042933 -0.315165 -0.980795 -0.093934 0.170934 2
0.311478 0.039614 -0.330454 -0.981587 0.054502 0.183076 3
0.315354 0.037829 -0.306193 -0.986117 0.072031 0.149617 2
0.203232 -0.072118 -0.798716 -0.703880 0.709935 -0.023333 3
0.201584 -0.075727 -0.821299 -0.799021 0.600889 -0.022305 3
0.208527 -0.068250 -0.844736 -0.725680 0.688032 0.000845 3
0.206024 -0.068754 -0.782603 -0.717951 0.695818 -0.019597 3
0.124359 -0.137082 -0.446696 -0.661158 0.496661 0.562315 3
0.122727 -0.131757 -0.453623 -0.593878 0.622500 0.509709 3
0.117615 -0.134641 -0.456614 -0.475919 0.637681 0.605693 3
0.283005 -0.059591 -0.227396 -0.699139 0.587747 0.407134 2
0.282791 -0.054571 -0.242289 -0.754022 0.656256 0.027898 2
0.278320 -0.062566 -0.232676 -0.718520 0.673691 0.172829 2
0.250061 -0.139104 -0.118571 -0.644542 0.756027 0.113970 2
0.251618 -0.134450 -0.143503 -0.548535 0.821344 0.156535 2
0.315094 -0.142660 0.326650 0.346535 0.463119 0.815742 1
0.312973 -0.136960 0.323904 0.159292 0.540501 0.826126 2
0.308899 -0.145254 0.330618 0.261962 0.614060 0.744518 2
0.306931 -0.139577 0.326589 -0.051538 0.680946 0.730518 2
0.057633 -0.297513 0.718405 0.752030 0.547780 0.366590 2
0.046036 -0.294073 0.735952 0.609993 0.702863 0.365914 2
0.038849 -0.301496 0.760824 0.688130 0.624655 0.369167 1
0.055267 -0.292043 0.715627 0.539459 0.795226 0.276766 2
0.037705 -0.296277 0.751119 0.524303 0.779651 0.342419 2
0.149658 -0.269254 0.580770 0.747877 0.367708 0.552695 2
0.142273 -0.271703 0.590505 0.448051 0.610489 0.653111 2
0.144058 -0.277456 0.593832 0.699638 0.432255 0.568913 2
0.128815 -0.277341 0.602133 0.274776 0.823008 0.497148 2
0.135620 -0.274450 0.596212 0.131431 0.801551 0.583302 2
0.374603 -0.307714 0.210378 0.820443 -0.224546 0.525787 1
0.371826 -0.316129 0.210806 0.832831 -0.208087 0.512925 1
0.506912 -0.378377 -0.035471 0.859237 -0.247896 0.447504 1
0.138992 -0.496473 0.533926 0.793289 -0.130333 0.594732 1
-0.252518 -0.605070 1.139852 0.803512 -0.277253 0.526781 1
0.183243 -0.496160 0.469076 0.823020 -0.109034 0.557450 1
0.187698 -0.501920 0.461752 0.802102 -0.141681 0.580137 1
0.545410 -0.412359 -0.119974 0.848601 -0.178086 0.498158 1
0.540344 -0.406392 -0.108011 0.824152 -0.316229 0.469865 1
0.538117 -0.414792 -0.110056 0.792275 -0.295057 0.534080 1
0.477783 -0.447782 -0.024454 0.839123 -0.228121 0.493794 1
0.248078 -0.560186 0.320028 0.768255 -0.482928 0.420195 1
0.234726 -0.556402 0.347769 0.805001 -0.388089 0.448732 1
0.240296 -0.562520 0.331960 0.818151 -0.403249 0.409901 1
0.249619 -0.551580 0.326620 0.804304 -0.405633 0.434231 1
0.181351 -0.609693 0.411031 0.823306 -0.326962 0.463965 1
0.160797 -0.608274 0.446462 0.732612 -0.455933 0.505377 1
0.244644 -0.650884 0.278799 0.819793 -0.339310 0.461311 1
0.236771 -0.653196 0.291403 0.826910 -0.356085 0.435228 1
0.242554 -0.659383 0.274893 0.786740 -0.431958 0.440967 1
0.234680 -0.661687 0.287496 0.820431 -0.398001 0.410472 1
0.267151 -0.643720 0.247244 0.826522 -0.195953 0.527696 1
0.252213 -0.648511 0.267874 0.806893 -0.292327 0.513291 1
0.264435 -0.652082 0.246816 0.775096 -0.385079 0.500939 1
0.122528 -0.720456 0.428030 0.831591 -0.263644 0.488823 1
0.114472 -0.722715 0.441641 0.864994 -0.222931 0.449541 1
0.116501 -0.737058 0.430532 0.854211 -0.217992 0.472021 1
0.318314 -0.644575 0.149679 0.800614 -0.294514 0.521804 1
0.310867 -0.646985 0.159933 0.808247 -0.344998 0.477194 1
0.315888 -0.653005 0.147695 0.787793 -0.336279 0.516041 1
0.158447 -0.140378 -0.383616 -0.181963 0.980152 0.078685 3
0.079315 -0.207319 0.065786 -0.613477 0.730412 0.300239 2
0.080139 -0.212469 0.077169 -0.326079 0.742798 0.584743 2
0.237183 -0.171255 0.066946 -0.621924 0.783059 -0.005348 2
0.228470 -0.178380 0.100485 -0.583944 0.809086 0.066259 2
0.309021 -0.197088 0.356405 0.758031 0.026335 0.651687 1
0.373322 -0.215146 0.234854 0.901090 -0.012706 0.433446 1
0.376679 -0.220846 0.227041 0.902640 -0.035460 0.428934 1
0.013260 -0.327047 0.822653 0.861646 -0.004704 0.507488 1
0.021912 -0.324865 0.806661 0.876144 -0.047183 0.479734 1
0.001923 -0.323606 0.839315 0.840826 0.060749 0.537886 1
0.363526 -0.245412 0.255911 0.895871 -0.014949 0.444064 1
0.141785 -0.318036 0.603872 0.846701 -0.237896 0.475923 1
0.134201 -0.320508 0.616171 0.827073 -0.240428 0.508079 1
-0.010513 -0.458043 0.812399 0.828821 -0.221676 0.513727 1
-0.017471 -0.460393 0.821676 0.795265 -0.252161 0.551334 1
-0.005936 -0.463888 0.802389 0.858119 -0.198625 0.473476 1
0.259812 -0.398687 0.383322 0.822404 -0.283411 0.493285 1
0.252564 -0.401220 0.393484 0.813082 -0.280377 0.510182 1
0.257904 -0.407140 0.380361 0.829177 -0.327798 0.452785 1
0.287003 -0.479925 0.302145 0.778955 -0.416213 0.469037 1
0.279419 -0.482252 0.312460 0.797393 -0.414406 0.438670 1
0.286102 -0.488721 0.294058 0.759144 -0.461047 0.459496 1
0.040283 -0.541105 0.677114 0.792813 -0.283306 0.539616 1
0.548493 -0.404119 -0.122202 0.864217 -0.207607 0.458288 1
0.155518 -0.634054 0.430532 0.790025 -0.327988 0.517963 1
0.239716 -0.599195 0.321035 0.851860 -0.213708 0.478187 1
0.234680 -0.593160 0.332998 0.834875 -0.266420 0.481669 1
0.232269 -0.601591 0.331259 0.795467 -0.297974 0.527678 1
0.224991 -0.604024 0.340505 0.811811 -0.277538 0.513747 1
0.111344 -0.731000 0.443594 0.875530 -0.222512 0.428876 1
0.105942 -0.724897 0.457906 0.884584 -0.178217 0.430987 1
0.185578 -0.224050 0.296499 -0.509275 0.774574 0.375065 2
0.186127 -0.229139 0.309469 -0.491035 0.803683 0.336124 2
0.129456 -0.247922 0.326864 0.086865 0.965673 0.244805 2
0.083725 -0.343137 0.692922 0.855128 0.006928 0.518371 1
0.079651 -0.337308 0.699514 0.879067 0.020799 0.476244 1
-0.036178 -0.422681 0.864340 0.832215 -0.240045 0.499797 1
-0.044449 -0.424932 0.877432 0.832387 -0.238348 0.500321 1
-0.046997 -0.433301 0.877279 0.819707 -0.263580 0.508534 1
-0.066620 -0.483037 0.894857 0.872516 -0.128098 0.471495 1
0.395218 -0.359647 0.159323 0.867305 -0.169561 0.468008 1
0.386185 -0.347951 0.179250 0.870708 -0.121040 0.476673 1
0.381531 -0.355726 0.186117 0.862374 -0.139889 0.486562 1
0.378098 -0.350171 0.192892 0.841416 -0.086573 0.533408 1
0.077606 -0.455640 0.653555 0.804860 -0.261208 0.532889 1
-0.066452 -0.432287 0.909567 0.880775 -0.153871 0.447839 1
-0.063873 -0.423772 0.908712 0.829471 -0.243784 0.502540 1
-0.004303 -0.390584 0.824178 0.838316 -0.311929 0.447130 1
0.007111 -0.402891 0.793478 0.852623 -0.292011 0.433317 1
0.015152 -0.400503 0.780721 0.801498 -0.378486 0.462979 1
-0.001831 -0.405279 0.810659 0.885077 -0.194106 0.423038 1
0.309158 -0.422185 0.287893 0.864263 -0.124183 0.487472 1
0.301010 -0.424497 0.301199 0.845713 -0.071152 0.528873 1
0.305420 -0.430272 0.292928 0.870184 -0.151777 0.468768 1
-0.101196 -0.500348 0.948477 0.825224 -0.293727 0.482422 1
0.293442 -0.486333 0.284780 0.797385 -0.402031 0.450054 1
0.278244 -0.491025 0.305654 0.828166 -0.383147 0.409071 1
0.101029 -0.558980 0.573599 0.859059 -0.171587 0.482262 1
0.097504 -0.567121 0.577322 0.849180 -0.194990 0.490787 1
0.673691 -0.398839 -0.354441 0.884630 0.070333 0.460959 1
0.664627 -0.400838 -0.335337 0.876480 0.100118 0.470913 1
-0.035522 -0.684003 0.726553 0.825372 -0.324489 0.462026 1
-0.045883 -0.671956 0.754141 0.845432 -0.271549 0.459898 1
-0.048492 -0.680318 0.752889 0.818262 -0.341506 0.462408 1
-0.053543 -0.674329 0.765524 0.806716 -0.302527 0.507629 1
0.449524 -0.536199 -0.004099 0.849900 -0.342550 0.400412 1
0.464813 -0.540410 -0.042429 0.863446 -0.309913 0.398015 1
-0.095962 -0.725919 0.799642 0.703419 -0.436492 0.560961 1
0.166046 -0.714742 0.357534 0.618824 -0.479263 0.622385 1
0.159516 -0.717328 0.362631 0.785663 -0.261976 0.560449 1
0.170654 -0.720670 0.347616 0.672391 -0.472406 0.569844 1
0.163849 -0.723218 0.354269 0.800612 -0.233119 0.551974 1
0.213181 -0.737600 0.267507 0.812034 -0.275495 0.514493 1
0.205490 -0.739950 0.279073 0.808765 -0.336624 0.482270 1
0.210297 -0.745923 0.267996 0.786486 -0.296609 0.541723 1
0.203079 -0.748380 0.276937 0.767619 -0.384782 0.512547 1
0.226013 -0.217885 0.453024 0.593977 0.066785 0.801705 1
-0.005066 -0.312307 0.847128 0.817157 0.333468 0.470163 1
0.312531 -0.354246 0.306539 0.869370 -0.179027 0.460593 1
0.221344 -0.433568 0.428152 0.784931 -0.141299 0.603256 1
0.210449 -0.430158 0.442617 0.804410 -0.151321 0.574479 1
-0.030350 -0.539014 0.800741 0.807994 -0.282703 0.516938 1
-0.038025 -0.541417 0.812734 0.863597 -0.230041 0.448644 1
0.451157 -0.426305 0.027761 0.822178 -0.223109 0.523685 1
0.443802 -0.428724 0.038381 0.836790 -0.257168 0.483370 1
0.448776 -0.434713 0.027334 0.803866 -0.290545 0.519021 1
0.441086 -0.437024 0.038870 0.861766 -0.211186 0.461259 1
0.684891 -0.411031 -0.379709 0.868053 -0.242187 0.433393 1
0.679566 -0.404950 -0.365763 0.883341 -0.135077 0.448846 1
0.676315 -0.413206 -0.363138 0.879299 -0.242271 0.410046 1
0.485535 -0.362989 0.004812 0.830629 -0.153617 0.535216 1
-0.159286 -0.570470 1.006338 0.772888 -0.340811 0.535250 1
0.083985 -0.535428 0.606222 0.771108 -0.270474 0.576399 1
0.076065 -0.537832 0.617361 0.853096 -0.161984 0.495972 1
0.080658 -0.543783 0.608267 0.821238 -0.121603 0.557477 1
0.009461 -0.527479 0.734274 0.848758 -0.324746 0.417314 1
0.007370 -0.536107 0.731191 0.843593 -0.324737 0.427665 1
0.015549 -0.533910 0.718313 0.820623 -0.293475 0.490358 1
0.018006 -0.525411 0.719290 0.840028 -0.272613 0.469079 1
-0.001373 -0.538259 0.748190 0.868980 -0.292758 0.398957 1
0.319245 -0.493810 0.234030 0.858242 -0.056160 0.510163 1
0.314789 -0.501829 0.242513 0.883447 -0.003319 0.468519 1
0.306030 -0.503965 0.259115 0.857596 -0.004466 0.514305 1
