-0.394390 -0.587106 1.253287 0.837757 -0.088634 0.538801 1
-0.400066 -0.592378 1.261099 0.835687 -0.172862 0.521293 1
-0.415783 -0.607828 1.280936 0.843971 -0.184294 0.503735 1
-0.421001 -0.613039 1.288168 0.841178 -0.097979 0.531807 1
-0.426464 -0.618295 1.295737 0.820686 -0.082731 0.565358 1
-0.436108 -0.619707 1.308798 0.808377 -0.166778 0.564546 1
-0.436474 -0.628267 1.306387 0.775379 -0.217924 0.592702 1
-0.441753 -0.633226 1.311789 0.816548 -0.192886 0.544099 1
-0.457165 -0.631494 1.336356 0.840608 -0.141464 0.522845 1
-0.457745 -0.648775 1.332877 0.853676 -0.187503 0.485881 1
0.013569 0.786040 0.635703 0.714339 0.155540 0.682296 1
0.286152 0.089331 0.204520 0.023646 0.058594 0.998002 2
-0.322826 -0.509287 1.150351 0.833153 -0.346741 0.430845 1
-0.327892 -0.514436 1.156760 0.868624 -0.293798 0.398968 1
-0.338787 -0.525095 1.173178 0.831038 -0.309629 0.462067 1
-0.349712 -0.534685 1.182516 0.763232 -0.370362 0.529442 1
-0.364880 -0.541299 1.202444 0.872023 -0.021321 0.489001 1
-0.372753 -0.557466 1.224265 0.882162 0.172376 0.438265 1
-0.379101 -0.563387 1.236929 0.853425 0.009755 0.521124 1
-0.383922 -0.568300 1.242514 0.775456 -0.145383 0.614436 1
-0.388561 -0.573129 1.246756 0.767069 -0.095731 0.634382 1
-0.393719 -0.578149 1.252341 0.783968 0.002516 0.620796 1
-0.399303 -0.583482 1.260001 0.798102 0.076610 0.597632 1
-0.404888 -0.588754 1.268576 0.824037 0.018304 0.566241 1
-0.410473 -0.594049 1.276236 0.821567 -0.092578 0.562545 1
-0.420727 -0.604326 1.289145 0.818567 -0.107341 0.564292 1
-0.425579 -0.600649 1.296317 0.818100 -0.089171 0.568121 1
-0.451702 -0.626367 1.329489 0.816183 -0.167547 0.552967 1
-0.457500 -0.640207 1.335135 0.864378 -0.121172 0.488025 1
-0.323315 -0.501253 1.157431 0.818564 -0.288440 0.496745 1
-0.328167 -0.506334 1.162924 0.859369 -0.254595 0.443471 1
-0.338909 -0.516863 1.178122 0.850230 -0.242270 0.467348 1
-0.344585 -0.521921 1.184683 0.792967 -0.327453 0.513787 1
-0.350048 -0.526651 1.189444 0.757646 -0.379668 0.530871 1
-0.359997 -0.536249 1.196524 0.790051 -0.313630 0.526741 1
-0.375652 -0.543726 1.223410 0.881622 0.160100 0.443971 1
-0.377605 -0.553835 1.231894 0.857013 0.157703 0.490570 1
-0.387920 -0.555643 1.248984 0.827027 -0.000735 0.562162 1
-0.388378 -0.564447 1.248068 0.735239 -0.141407 0.662893 1
-0.393108 -0.569170 1.251852 0.729746 -0.127566 0.671713 1
-0.398296 -0.574167 1.257162 0.772441 0.004672 0.635069 1
-0.404003 -0.579569 1.265555 0.825269 0.069994 0.560385 1
-0.409740 -0.585107 1.275412 0.846924 0.017338 0.531432 1
-0.415264 -0.590395 1.283621 0.821245 -0.093128 0.562924 1
-0.430767 -0.605814 1.303122 0.825721 -0.074303 0.559164 1
-0.435955 -0.611002 1.310263 0.830112 -0.108908 0.546858 1
-0.462536 -0.636881 1.344778 0.869465 -0.062383 0.490039 1
-0.467937 -0.642358 1.354086 0.868757 -0.091948 0.486628 1
-0.468182 -0.650941 1.351462 0.866092 -0.168539 0.470615 1
-0.473278 -0.647730 1.361838 0.840078 -0.118797 0.529298 1
-0.328594 -0.498003 1.167593 0.839314 -0.172336 0.515609 1
-0.333507 -0.503152 1.174155 0.848838 -0.181224 0.496620 1
-0.338848 -0.508432 1.181784 0.847263 -0.174168 0.501807 1
-0.344494 -0.513605 1.188834 0.809691 -0.209939 0.548021 1
-0.349895 -0.518510 1.194235 0.775431 -0.259874 0.575476 1
-0.355083 -0.523279 1.198721 0.757092 -0.330924 0.563295 1
-0.364941 -0.532861 1.205862 0.789734 -0.292368 0.539297 1
-0.382152 -0.550081 1.238760 0.874127 0.125204 0.469282 1
-0.392864 -0.560571 1.254080 0.770835 -0.209638 0.601552 1
-0.397777 -0.565401 1.258047 0.773351 -0.222466 0.593665 1
-0.403149 -0.570406 1.263754 0.831183 -0.102079 0.546547 1
-0.408916 -0.575929 1.273184 0.870950 -0.018976 0.491006 1
-0.414745 -0.581606 1.283804 0.868260 -0.047063 0.493872 1
-0.420116 -0.586885 1.291830 0.841677 -0.140827 0.521295 1
-0.430553 -0.597139 1.304587 0.835455 -0.171113 0.522240 1
-0.446178 -0.612695 1.325613 0.815894 -0.139926 0.561015 1
-0.462200 -0.628038 1.345023 0.853961 -0.066203 0.516109 1
-0.472973 -0.638918 1.362967 0.839069 -0.076093 0.538676 1
-0.483166 -0.640520 1.377463 0.818655 -0.111918 0.563274 1
-0.333691 -0.494600 1.176749 0.827988 -0.224321 0.513922 1
-0.338787 -0.499773 1.183493 0.832899 -0.137200 0.536149 1
-0.344219 -0.504991 1.190604 0.811880 -0.125958 0.570075 1
-0.349560 -0.510011 1.196494 0.774628 -0.170010 0.609137 1
-0.359722 -0.519800 1.206320 0.772152 -0.211028 0.599373 1
-0.364727 -0.524637 1.210532 0.760519 -0.304370 0.573558 1
-0.374950 -0.534586 1.221182 0.863766 -0.096964 0.494476 1
-0.380718 -0.540353 1.232809 0.890137 0.069531 0.450358 1
-0.386822 -0.546510 1.246695 0.884232 0.057166 0.463536 1
-0.392589 -0.552110 1.256918 0.857555 -0.132947 0.496915 1
-0.397839 -0.557146 1.262900 0.795940 -0.294759 0.528769 1
-0.403026 -0.561983 1.267508 0.804754 -0.300235 0.512084 1
-0.408428 -0.567079 1.273733 0.860173 -0.178983 0.477563 1
-0.414135 -0.572687 1.283438 0.887705 -0.098067 0.449847 1
-0.419872 -0.578279 1.293875 0.878007 -0.139791 0.457780 1
-0.425335 -0.583505 1.301657 0.841653 -0.208603 0.498101 1
-0.435802 -0.585367 1.318503 0.829321 -0.233404 0.507690 1
-0.441173 -0.598985 1.321371 0.827638 -0.182786 0.530665 1
-0.446239 -0.604082 1.327414 0.809907 -0.133607 0.571139 1
-0.456402 -0.614168 1.339438 0.810393 -0.128909 0.571530 1
-0.461803 -0.619295 1.345969 0.827490 -0.120609 0.548373 1
-0.472729 -0.630052 1.362875 0.863215 -0.037287 0.503458 1
-0.478039 -0.635400 1.371207 0.849329 -0.137150 0.509735 1
-0.529247 -0.602037 1.467032 0.854062 -0.225127 0.468930 1
-0.523937 -0.596796 1.459494 0.883429 -0.190282 0.428190 1
-0.332928 -0.487589 1.179526 0.809670 -0.340299 0.478154 1
-0.344219 -0.496462 1.193045 0.808472 -0.301319 0.505549 1
-0.349316 -0.501428 1.198416 0.796499 -0.209864 0.567050 1
-0.354290 -0.506288 1.203207 0.786824 -0.196131 0.585185 1
-0.364269 -0.516237 1.213766 0.796563 -0.223049 0.561904 1
-0.369274 -0.521204 1.218649 0.791517 -0.286427 0.539870 1
-0.374432 -0.526132 1.223502 0.820567 -0.238683 0.519326 1
-0.379864 -0.531297 1.230734 0.878157 -0.079504 0.471720 1
-0.385784 -0.537065 1.242667 0.900474 0.036921 0.433340 1
-0.391918 -0.543184 1.256522 0.896145 0.014770 0.443516 1
-0.403057 -0.553903 1.273306 0.815577 -0.286819 0.502563 1
-0.408306 -0.558824 1.278433 0.824523 -0.298926 0.480422 1
-0.413708 -0.564005 1.285239 0.881863 -0.167810 0.440633 1
-0.430462 -0.580286 1.312247 0.845888 -0.231352 0.480572 1
-0.440624 -0.581995 1.327505 0.797024 -0.241880 0.553395 1
-0.446178 -0.595438 1.329886 0.786241 -0.220277 0.577324 1
-0.455700 -0.596773 1.341940 0.797607 -0.155625 0.582755 1
-0.507244 -0.588647 1.427695 0.872534 -0.141146 0.467720 1
-0.461315 -0.610620 1.347372 0.834157 -0.123419 0.537541 1
-0.466747 -0.615846 1.354636 0.848935 -0.115528 0.515716 1
-0.472271 -0.621179 1.362875 0.866902 -0.074895 0.492819 1
-0.477825 -0.626726 1.372366 0.875935 -0.076182 0.476376 1
-0.501507 -0.574754 1.421866 0.858960 -0.146203 0.490726 1
-0.491314 -0.572885 1.405417 0.839504 -0.088279 0.536135 1
-0.480877 -0.562647 1.392660 0.817128 -0.151469 0.556201 1
-0.464245 -0.538965 1.376425 0.820975 -0.151113 0.550604 1
-0.426556 -0.510584 1.320639 0.823127 -0.155128 0.546257 1
-0.431713 -0.507173 1.329611 0.841430 -0.159942 0.516154 1
-0.421062 -0.496736 1.315207 0.815632 -0.193801 0.545147 1
-0.399486 -0.475763 1.286185 0.871408 0.057853 0.487136 1
-0.393810 -0.470003 1.274985 0.838723 0.045102 0.542687 1
-0.394176 -0.461465 1.276785 0.833759 -0.222328 0.505388 1
-0.389355 -0.465128 1.269553 0.704334 -0.076880 0.705694 1
-0.344646 -0.488252 1.199545 0.803460 -0.324510 0.499145 1
-0.354534 -0.489877 1.213614 0.789015 -0.324172 0.521888 1
-0.354351 -0.497957 1.207663 0.786930 -0.330258 0.521220 1
-0.359173 -0.502809 1.211600 0.792759 -0.321052 0.518131 1
-0.364086 -0.507776 1.216666 0.821250 -0.259282 0.508254 1
-0.369060 -0.512834 1.222403 0.815787 -0.278348 0.506966 1
-0.379223 -0.522836 1.232901 0.824500 -0.273521 0.495364 1
-0.384869 -0.528062 1.240866 0.894031 -0.069676 0.442553 1
-0.397259 -0.540071 1.267569 0.891684 -0.017247 0.452329 1
-0.402935 -0.545564 1.277090 0.843814 -0.170273 0.508905 1
-0.413586 -0.555658 1.289297 0.847095 -0.214572 0.486197 1
-0.419079 -0.561021 1.297446 0.881592 -0.179533 0.436535 1
-0.424572 -0.566568 1.306998 0.885732 -0.137326 0.443418 1
-0.429974 -0.571939 1.315390 0.854210 -0.200829 0.479575 1
-0.450695 -0.583467 1.341025 0.771214 -0.244875 0.587593 1
-0.460369 -0.593149 1.349539 0.821808 -0.126497 0.555545 1
-0.466137 -0.607225 1.356070 0.854282 -0.128097 0.503780 1
-0.471661 -0.612489 1.363852 0.865686 -0.156685 0.475435 1
-0.477306 -0.617876 1.372671 0.878757 -0.102435 0.466148 1
-0.483013 -0.623499 1.382834 0.872980 -0.098439 0.477719 1
-0.488506 -0.628824 1.391013 0.835981 -0.163765 0.523753 1
-0.493664 -0.633821 1.396475 0.807048 -0.246254 0.536687 1
-0.326580 -0.403772 1.192831 0.846473 -0.140979 0.513427 1
-0.333874 -0.408777 1.202841 0.833954 -0.182099 0.520922 1
0.093189 -0.547952 0.484641 0.732111 -0.157477 0.662732 1
-0.344280 -0.480035 1.203665 0.801492 -0.245478 0.545299 1
-0.379497 -0.506487 1.243765 0.826715 -0.281609 0.487072 1
-0.384533 -0.519701 1.244040 0.847709 -0.255820 0.464699 1
-0.390270 -0.524988 1.252615 0.893438 -0.060368 0.445112 1
-0.402508 -0.536813 1.277884 0.890865 -0.000984 0.454266 1
-0.407848 -0.542116 1.285696 0.828803 -0.101266 0.550301 1
-0.413158 -0.547174 1.291922 0.827586 -0.178437 0.532223 1
-0.418713 -0.552461 1.299612 0.867100 -0.101078 0.487771 1
-0.429424 -0.563341 1.317252 0.872379 -0.124540 0.472699 1
-0.434734 -0.568651 1.324789 0.834405 -0.202685 0.512529 1
-0.440105 -0.573694 1.330893 0.805356 -0.247256 0.538764 1
-0.444958 -0.570207 1.339163 0.775767 -0.238359 0.584269 1
-0.455639 -0.588289 1.345145 0.765482 -0.233571 0.599568 1
-0.465588 -0.598398 1.356894 0.862944 -0.077030 0.499394 1
-0.471233 -0.603960 1.366354 0.875397 -0.125702 0.466775 1
-0.482494 -0.614725 1.383566 0.874272 -0.138376 0.465295 1
-0.487713 -0.611482 1.393881 0.846807 -0.145518 0.511608 1
-0.493420 -0.625284 1.398978 0.808712 -0.150825 0.568539 1
-0.341564 -0.474443 1.201498 0.797947 -0.137619 0.586806 1
-0.358929 -0.486414 1.221365 0.792576 -0.179766 0.582672 1
-0.363781 -0.491418 1.226248 0.803165 -0.227633 0.550554 1
-0.368816 -0.496393 1.231284 0.811905 -0.297009 0.502589 1
-0.390209 -0.516618 1.256308 0.839828 -0.249546 0.482094 1
-0.395702 -0.521845 1.264212 0.875366 -0.124746 0.467091 1
-0.401501 -0.527544 1.274954 0.881172 0.015112 0.472554 1
-0.407177 -0.533212 1.285544 0.845620 -0.045611 0.531833 1
-0.417828 -0.543657 1.299857 0.843051 -0.101304 0.528207 1
-0.423534 -0.549066 1.308646 0.863935 -0.057938 0.500259 1
-0.428966 -0.554552 1.317831 0.865428 -0.049371 0.498595 1
-0.434215 -0.559938 1.326224 0.852333 -0.097867 0.513760 1
-0.439587 -0.565218 1.333548 0.816919 -0.163236 0.553170 1
-0.450268 -0.574998 1.343680 0.713635 -0.190149 0.674217 1
-0.460247 -0.584612 1.351950 0.749763 -0.169338 0.639672 1
-0.464947 -0.589525 1.356863 0.827464 -0.092049 0.553922 1
-0.470409 -0.594995 1.366049 0.883881 -0.030103 0.466741 1
-0.481701 -0.597582 1.387900 0.882850 -0.069411 0.464498 1
-0.482128 -0.606187 1.385886 0.866968 -0.164624 0.470389 1
-0.493114 -0.616663 1.400839 0.813227 -0.180991 0.553087 1
-0.498272 -0.621599 1.406088 0.784754 -0.193940 0.588684 1
0.140980 0.136305 -1.306650 -0.895749 -0.439984 0.063616 3
0.142841 0.136732 -1.278177 -0.882070 -0.470109 0.030822 3
0.144154 0.136328 -1.243570 -0.885542 -0.462967 0.038434 3
0.145924 0.136549 -1.213785 -0.918602 -0.391733 0.052119 3
0.148213 0.137213 -1.157358 -0.959532 -0.278281 0.043110 3
0.160053 0.138739 -1.030069 -0.964569 -0.212285 0.156659 3
0.154713 0.147681 -1.051340 -0.942567 -0.309340 0.126000 3
0.157093 0.136710 -1.058389 -0.953239 -0.289610 0.086385 3
0.158802 0.146567 -1.028604 -0.926796 -0.340343 0.158796 3
0.167561 0.139082 -0.853067 -0.984527 -0.151767 0.087602 3
0.169911 0.140379 -0.831522 -0.984729 -0.103822 0.139750 3
-0.358074 -0.477686 1.222250 0.806970 -0.093213 0.583191 1
-0.362987 -0.482790 1.228201 0.829881 -0.177443 0.528972 1
-0.368084 -0.488023 1.234244 0.830996 -0.257969 0.492847 1
-0.390453 -0.508348 1.261221 0.827474 -0.276539 0.488685 1
-0.395672 -0.513368 1.267111 0.837135 -0.224497 0.498804 1
-0.400951 -0.518518 1.273947 0.875363 -0.072401 0.478014 1
-0.411938 -0.529688 1.293600 0.874450 -0.049155 0.482619 1
-0.417187 -0.534982 1.301047 0.842574 -0.136144 0.521089 1
0.172993 0.142584 -0.815805 -0.979281 -0.184476 0.083530 3
0.173878 0.142050 -0.781320 -0.874201 -0.485396 -0.012791 3
0.169880 0.144743 -0.735574 -0.890598 -0.454274 -0.021663 3
-0.439190 -0.556451 1.334738 0.840135 -0.079106 0.536578 1
-0.444469 -0.561578 1.341147 0.770605 -0.163493 0.615985 1
-0.459453 -0.567255 1.354666 0.735937 -0.187906 0.650452 1
-0.459972 -0.575975 1.353690 0.775275 -0.132094 0.617656 1
-0.464825 -0.572237 1.360342 0.808997 -0.148935 0.568632 1
-0.469891 -0.585924 1.365042 0.856998 -0.068478 0.510750 1
0.173237 0.139006 -0.727151 -0.879865 -0.470134 -0.069359 3
-0.492687 -0.599558 1.405661 0.825692 -0.157074 0.541813 1
-0.498119 -0.613176 1.409293 0.812320 -0.203382 0.546600 1
-0.503185 -0.618112 1.414358 0.807603 -0.247041 0.535489 1
-0.357555 -0.468507 1.221915 0.849710 0.037988 0.525880 1
-0.362560 -0.474039 1.229971 0.873784 -0.115806 0.472325 1
-0.367870 -0.479501 1.237936 0.861487 -0.221000 0.457164 1
-0.373272 -0.484811 1.245261 0.833949 -0.277727 0.476862 1
-0.396526 -0.496896 1.278128 0.821314 -0.285704 0.493779 1
-0.401104 -0.510126 1.277457 0.830725 -0.263562 0.490337 1
-0.406322 -0.515344 1.284506 0.866930 -0.154758 0.473796 1
-0.417187 -0.517732 1.305136 0.874311 -0.069942 0.480301 1
-0.417339 -0.526430 1.303885 0.848244 -0.131322 0.513067 1
-0.427746 -0.536775 1.317557 0.840494 -0.118646 0.528670 1
-0.433269 -0.542123 1.325949 0.858025 -0.044307 0.511693 1
-0.438854 -0.547609 1.335165 0.856426 -0.048761 0.513962 1
-0.444256 -0.552919 1.342856 0.810976 -0.124831 0.571607 1
-0.449352 -0.557863 1.347800 0.730131 -0.223107 0.645858 1
-0.454296 -0.562570 1.350943 0.692265 -0.257874 0.673996 1
-0.470013 -0.577379 1.367056 0.866694 -0.148714 0.476156 1
-0.475353 -0.582765 1.375845 0.890718 -0.037836 0.452979 1
-0.487133 -0.594339 1.398276 0.852606 -0.118850 0.508860 1
-0.498028 -0.604669 1.412131 0.824470 -0.119816 0.553076 1
-0.503216 -0.609766 1.418417 0.832783 -0.199232 0.516506 1
-0.508434 -0.614832 1.424582 0.828603 -0.261760 0.494872 1
-0.513653 -0.619844 1.430350 0.818884 -0.269301 0.506859 1
0.221180 0.138289 0.226035 -0.543617 -0.351660 0.762113 2
0.224903 0.141791 0.232626 -0.532983 -0.603611 0.592944 2
0.228840 0.144629 0.239981 -0.387463 -0.606704 0.694106 2
0.233296 0.149519 0.244437 -0.181122 -0.508912 0.841548 2
0.264088 0.151686 0.242941 0.129331 -0.217827 0.967380 2
0.259449 0.147414 0.242850 0.178391 -0.257688 0.949618 2
0.263722 0.142958 0.241995 -0.003774 -0.025942 0.999656 2
0.254902 0.143294 0.242239 0.079672 -0.318269 0.944647 2
0.245472 0.135260 0.240195 -0.218843 -0.176799 0.959609 2
0.241169 0.130995 0.238730 -0.290305 -0.085061 0.953146 2
0.248829 0.131659 0.240439 -0.319748 -0.458435 0.829215 2
0.018665 0.781561 0.631216 0.750308 -0.026341 0.660564 1
-0.276623 -0.465372 1.092673 0.790931 -0.111569 0.601649 1
0.149738 0.119505 -1.316415 -0.863036 -0.505070 -0.008548 3
0.150898 0.116278 -1.295023 -0.939256 -0.343217 -0.000861 3
0.152302 0.112654 -1.299844 -0.933944 -0.357404 -0.003289 3
-0.362926 -0.465364 1.232108 0.903999 -0.002621 0.427527 1
-0.368694 -0.471246 1.243857 0.888137 -0.135114 0.439269 1
-0.374065 -0.476610 1.251761 0.841454 -0.231488 0.488229 1
-0.379314 -0.481653 1.257590 0.813135 -0.213462 0.541522 1
-0.385082 -0.486765 1.264304 0.830247 -0.253819 0.496252 1
-0.406658 -0.506990 1.288840 0.834201 -0.255478 0.488712 1
-0.411785 -0.512277 1.296133 0.864909 -0.158181 0.476352 1
-0.422466 -0.523019 1.312918 0.826147 -0.097233 0.555002 1
-0.427624 -0.528108 1.319205 0.814385 -0.095181 0.572467 1
-0.432934 -0.533289 1.326102 0.834505 -0.061906 0.547511 1
-0.438213 -0.529855 1.334647 0.856680 -0.011190 0.515727 1
-0.449535 -0.549432 1.351492 0.806147 -0.199400 0.557105 1
-0.454601 -0.554254 1.355704 0.731841 -0.326345 0.598254 1
-0.459606 -0.558908 1.358817 0.749163 -0.335170 0.571328 1
-0.464886 -0.563768 1.363577 0.824098 -0.258886 0.503826 1
-0.470348 -0.569017 1.370718 0.856867 -0.201471 0.474541 1
-0.481060 -0.579820 1.387808 0.885403 -0.057340 0.461274 1
-0.486828 -0.585504 1.398489 0.866876 -0.014807 0.498304 1
-0.492351 -0.590913 1.407065 0.817842 -0.047393 0.573487 1
-0.502941 -0.601114 1.419882 0.813101 -0.076052 0.577133 1
-0.508251 -0.606355 1.427390 0.848520 -0.098615 0.519893 1
-0.524151 -0.613535 1.452292 0.846016 -0.195591 0.495984 1
0.520039 0.408919 -0.152841 0.918756 0.087029 0.385116 1
0.525715 0.406973 -0.165903 0.917915 0.098985 0.384231 1
0.259297 0.158278 0.246420 0.375546 -0.171737 0.910753 2
0.259480 0.155875 0.245657 0.275616 -0.322283 0.905632 2
0.264668 0.152693 0.243582 0.001471 -0.436437 0.899734 2
0.254963 0.151671 0.245657 0.208017 -0.374732 0.903496 2
0.246052 0.143156 0.242758 -0.019131 -0.403408 0.914820 2
0.250294 0.139174 0.241599 -0.087052 -0.141653 0.986081 2
0.241108 0.139510 0.240775 -0.180199 -0.364463 0.913617 2
0.236744 0.135680 0.238425 -0.387558 -0.244277 0.888891 2
0.232624 0.131834 0.235434 -0.559707 -0.049022 0.827239 2
0.236561 0.126883 0.237906 -0.480350 0.055087 0.875345 2
0.228321 0.128073 0.231863 -0.666468 -0.003170 0.745527 2
0.175282 0.128165 -0.820962 -0.934289 -0.333573 0.125832 3
0.173786 0.127005 -0.831461 -0.911678 -0.384582 0.144706 3
0.177387 0.121504 -0.825082 -0.925763 -0.365542 0.096652 3
0.145832 0.124503 -1.319193 -0.899364 -0.435641 0.036910 3
-0.369579 -0.462923 1.247092 0.897356 -0.012547 0.441129 1
-0.375194 -0.468492 1.256644 0.831993 -0.099695 0.545755 1
-0.379803 -0.473268 1.261069 0.724521 -0.109716 0.680464 1
-0.384380 -0.477968 1.265158 0.764703 -0.040730 0.643095 1
-0.390087 -0.483255 1.272665 0.825534 -0.010839 0.564249 1
-0.396160 -0.488573 1.281607 0.837861 -0.144043 0.526536 1
-0.401684 -0.493639 1.288351 0.821337 -0.250081 0.512704 1
-0.411816 -0.503770 1.299063 0.819613 -0.227402 0.525855 1
-0.416729 -0.508905 1.305502 0.845123 -0.109300 0.523279 1
-0.421886 -0.514169 1.313071 0.824995 -0.085771 0.558593 1
-0.432659 -0.524484 1.326590 0.816691 -0.070707 0.572726 1
-0.449383 -0.540849 1.353690 0.850646 -0.054671 0.522889 1
-0.454693 -0.545961 1.360373 0.801012 -0.220552 0.556541 1
-0.459850 -0.550752 1.364828 0.761534 -0.336761 0.553767 1
-0.465160 -0.555536 1.369345 0.807246 -0.302501 0.506800 1
-0.470684 -0.560716 1.375876 0.844843 -0.251174 0.472389 1
-0.475964 -0.565988 1.383108 0.853809 -0.217368 0.473034 1
-0.481151 -0.571199 1.389731 0.857144 -0.155663 0.490993 1
-0.486492 -0.576540 1.397635 0.855944 -0.051334 0.514514 1
-0.502422 -0.592233 1.419913 0.807238 -0.064879 0.586650 1
-0.507732 -0.597467 1.427176 0.859861 -0.065093 0.506362 1
-0.518719 -0.608369 1.445151 0.869943 -0.112081 0.480247 1
0.517689 0.422430 -0.152231 0.903392 0.165578 0.395559 1
0.524037 0.429846 -0.170724 0.904578 0.128241 0.406562 1
0.528767 0.435103 -0.181161 0.880422 0.054051 0.471100 1
0.514851 0.412001 -0.141855 0.907168 0.136384 0.398053 1
0.254658 0.162772 0.249045 0.531881 0.065184 0.844307 2
0.254963 0.160132 0.248923 0.306494 -0.290705 0.906395 2
0.242237 0.156897 0.250113 -0.020749 -0.433795 0.900772 2
0.242390 0.147383 0.245108 -0.051300 -0.464371 0.884154 2
0.237171 0.143492 0.242331 -0.198130 -0.493986 0.846595 2
0.232807 0.140280 0.238150 -0.419402 -0.504136 0.754950 2
0.228779 0.136816 0.232870 -0.629804 -0.288490 0.721194 2
0.224568 0.133192 0.228018 -0.683930 -0.081068 0.725030 2
0.220295 0.129561 0.223593 -0.547584 -0.129885 0.826608 2
0.173817 0.137366 -0.807809 -0.963529 -0.249911 0.095693 3
0.172810 0.134543 -0.823007 -0.943236 -0.294729 0.153104 3
0.170368 0.132605 -0.838571 -0.941238 -0.316425 0.118097 3
-0.375530 -0.459787 1.257346 0.817358 0.004937 0.576109 1
-0.380474 -0.464891 1.262686 0.682253 -0.039576 0.730044 1
-0.388958 -0.473825 1.269553 0.751333 0.075062 0.655641 1
-0.394573 -0.479417 1.278799 0.833678 0.115873 0.539958 1
-0.400890 -0.485139 1.289816 0.850249 -0.037834 0.525020 1
-0.406567 -0.490274 1.297293 0.809156 -0.213572 0.547407 1
-0.421337 -0.505350 1.313345 0.839262 -0.111976 0.532072 1
-0.437817 -0.520937 1.334616 0.829481 -0.097427 0.549973 1
-0.448925 -0.531946 1.353049 0.857494 0.023829 0.513943 1
-0.464794 -0.547357 1.373648 0.788719 -0.280892 0.546829 1
-0.470318 -0.552309 1.379477 0.821085 -0.235976 0.519744 1
-0.475811 -0.557527 1.386435 0.837878 -0.209720 0.503963 1
-0.485912 -0.567690 1.398337 0.837054 -0.149919 0.526179 1
-0.496685 -0.578249 1.413290 0.828560 -0.041965 0.558325 1
-0.501903 -0.583421 1.420340 0.818462 -0.075434 0.569587 1
-0.512859 -0.594110 1.436789 0.890736 -0.151134 0.428658 1
-0.518444 -0.599718 1.446829 0.883319 -0.119512 0.453283 1
-0.523968 -0.605165 1.455801 0.875015 -0.172888 0.452170 1
0.250538 0.164465 0.251547 0.336103 -0.114732 0.934811 2
0.246052 0.160284 0.251395 0.150170 -0.333870 0.930580 2
0.177387 0.136534 -0.774728 -0.846262 -0.532746 0.004751 3
0.144611 0.130988 -1.301462 -0.905308 -0.420139 0.062453 3
0.142323 0.130026 -1.325845 -0.904233 -0.419581 0.079459 3
0.139362 0.136336 -1.338388 -0.937244 -0.345434 0.047431 3
-0.385021 -0.460359 1.266806 0.687427 -0.060635 0.723718 1
0.524464 0.388930 -0.161295 0.919901 0.044185 0.389653 1
0.318287 0.084814 0.201102 0.543893 0.239806 0.804160 2
0.605366 -0.310068 -0.279855 0.886933 0.066634 0.457066 1
0.604054 -0.316049 -0.278787 0.822891 -0.248645 0.510907 1
0.317249 0.090506 0.200186 0.501377 0.306587 0.809089 2
0.289478 0.032530 0.222983 -0.306004 0.391206 0.867940 2
0.256245 0.130896 0.241660 0.089257 -0.585414 -0.805806 2
0.259480 0.130362 0.242392 -0.075389 -0.080865 0.993870 2
0.250660 0.130667 0.241721 -0.162685 -0.093479 0.982240 2
0.159870 0.168494 -0.847116 -0.788820 -0.614341 0.018657 3
-0.370922 -0.461267 1.249533 0.893156 0.052613 0.446658 1
0.191639 0.204939 -0.447183 -0.725786 -0.666543 0.170163 3
0.185352 0.205725 -0.461923 -0.510953 -0.769532 0.383077 3
0.190754 0.200613 -0.466684 -0.520475 -0.805690 0.282788 3
0.158894 0.132048 -1.043619 -0.912259 -0.379238 0.154796 3
0.161060 0.135748 -1.030679 -0.866896 -0.378243 0.324691 3
0.155323 0.156454 -0.958475 -0.815254 -0.579092 -0.003695 3
0.161091 0.145079 -1.022256 -0.875209 -0.454368 0.166007 3
0.155293 0.157294 -1.013406 -0.810324 -0.585337 0.027486 3
0.151386 0.185919 -0.672647 -0.831910 -0.554454 0.022479 3
0.153675 0.160467 -0.919778 -0.856682 -0.513996 0.043635 3
0.165272 0.141890 -0.886484 -0.951608 -0.303689 0.047065 3
0.169056 0.132346 -0.860147 -0.945657 -0.323830 0.029436 3
0.161152 0.154890 -0.890909 -0.943520 -0.302008 0.136239 3
0.162861 0.146651 -0.896585 -0.925840 -0.374808 0.048364 3
0.171345 0.127440 -0.850442 -0.889699 -0.454180 0.046438 3
0.150776 0.184683 -0.746561 -0.838327 -0.545168 -0.000014 3
0.148945 0.186781 -0.726114 -0.828602 -0.559370 -0.022913 3
0.148029 0.187155 -0.701212 -0.753292 -0.657329 0.021675 3
0.165302 0.156004 -0.731851 -0.932901 -0.358998 -0.028582 3
0.163624 0.160498 -0.753275 -0.905018 -0.425333 0.005897 3
0.165638 0.151068 -0.709695 -0.939090 -0.336617 -0.069270 3
0.177662 0.118239 -0.835702 -0.899556 -0.433854 0.050693 3
0.165547 0.149924 -0.659280 -0.956340 -0.292257 0.000639 3
0.166309 0.146193 -0.689401 -0.950397 -0.310915 -0.008784 3
0.171223 0.132925 -0.694864 -0.914644 -0.403011 -0.031750 3
0.145283 0.194647 -0.631082 -0.816825 -0.576805 -0.009691 3
0.100910 -0.109224 -0.402048 -0.382774 0.874359 0.298298 3
0.109760 -0.109056 -0.403787 -0.046517 0.845683 0.531654 3
0.116901 -0.088945 -0.467233 -0.538375 0.786005 0.303889 3
0.110523 -0.096101 -0.452615 -0.276277 0.930588 0.240161 3
0.141651 -0.097406 -0.402383 -0.194954 0.954514 0.225601 3
0.143299 -0.076547 -0.463358 -0.052216 0.727267 0.684366 3
0.147266 -0.081438 -0.457437 -0.089043 0.918612 0.384998 3
0.139759 -0.071794 -0.468515 -0.297860 0.771724 0.561892 3
0.103657 -0.113924 -0.393411 -0.236485 0.968420 0.078973 3
0.112537 -0.114244 -0.393045 -0.602427 0.791988 0.099186 3
0.158283 0.190367 -0.510385 -0.601644 -0.633178 0.486940 3
0.177906 0.119734 -0.819498 -0.949732 -0.312799 0.012855 3
0.176685 0.227057 -0.432443 -0.616137 -0.787170 -0.027165 3
0.189228 0.214171 -0.426614 -0.823184 -0.555717 0.116390 3
0.181141 0.222960 -0.430704 -0.670420 -0.741791 0.016824 3
0.166157 0.202078 -0.475778 -0.322636 -0.849505 0.417429 3
0.161121 0.194418 -0.500436 -0.502134 -0.785580 0.361559 3
0.174580 0.201826 -0.472482 -0.161425 -0.833241 0.528821 3
0.178059 0.206374 -0.465799 -0.249889 -0.789801 0.560152 3
0.183216 0.201201 -0.471567 -0.206389 -0.832987 0.513357 3
0.158314 0.202635 -0.483163 -0.455443 -0.826817 0.330070 3
0.185291 0.218687 -0.428964 -0.727695 -0.684214 0.048068 3
0.148548 0.187224 -0.529886 -0.845788 -0.508519 0.161405 3
0.113026 -0.120309 -0.222330 -0.209265 0.961966 0.175582 3
0.105518 -0.122148 -0.229623 -0.267676 0.962952 0.032764 3
0.147175 -0.101488 -0.232950 -0.283022 0.878247 0.385462 3
0.136341 -0.107492 -0.222482 -0.326849 0.825868 0.459468 3
0.149067 -0.103510 -0.221750 -0.370094 0.839247 0.398366 3
0.144764 -0.107729 -0.216867 -0.368730 0.719782 0.588178 3
0.099415 -0.406755 0.503928 0.802028 -0.273053 0.531218 1
-0.006115 -0.626718 0.614340 0.844713 0.038587 0.533826 1
-0.115765 -0.595987 0.790305 -0.898646 -0.249490 -0.360819 1
-0.562176 -0.483278 1.539877 0.788753 0.080835 0.609372 1
0.143940 0.193426 -0.572397 -0.874991 -0.482867 -0.035072 3
0.145680 0.188658 -0.557993 -0.918240 -0.394698 -0.032384 3
-0.569012 -0.488367 1.547140 0.752332 -0.013079 0.658654 1
-0.568035 -0.477228 1.546347 0.796409 -0.036853 0.603635 1
-0.495830 -0.470094 1.440512 0.795089 -0.236599 0.558440 1
-0.533367 -0.478952 1.498831 0.861386 -0.218893 0.458367 1
-0.333752 -0.391214 1.208517 0.862983 -0.099078 0.495424 1
-0.327160 -0.386514 1.196982 0.869493 0.040033 0.492321 1
-0.315166 -0.395425 1.174612 0.881379 -0.024281 0.471786 1
-0.320843 -0.391092 1.185660 0.874770 -0.046907 0.482262 1
-0.321392 -0.408739 1.183493 0.852930 -0.103039 0.511755 1
-0.327679 -0.413149 1.191916 0.824903 -0.158629 0.542560 1
-0.334728 -0.478838 1.189993 0.805635 -0.325568 0.494932 1
-0.353161 -0.474367 1.215964 0.795298 0.076958 0.601314 1
-0.350109 -0.456644 1.208456 0.800056 0.029834 0.599183 1
-0.326214 -0.491869 1.166190 0.809275 -0.276179 0.518459 1
-0.363506 -0.456728 1.232260 0.906670 0.005011 0.421811 1
-0.357555 -0.461084 1.220328 0.874286 0.043441 0.483464 1
-0.376079 -0.456682 1.257651 0.796595 -0.007916 0.604462 1
-0.387798 -0.456865 1.270316 0.774050 -0.247794 0.582619 1
-0.395550 -0.452493 1.285635 0.855682 -0.297172 0.423671 1
-0.401531 -0.456995 1.295248 0.867824 -0.291204 0.402594 1
-0.408276 -0.461473 1.306967 0.871335 -0.262606 0.414504 1
-0.458416 -0.470110 1.382651 0.821970 -0.340317 0.456673 1
-0.545208 -0.479158 1.518973 0.770122 -0.150042 0.620000 1
-0.550640 -0.483499 1.524741 0.767421 -0.071251 0.637173 1
-0.555462 -0.478922 1.529501 0.736603 0.118402 0.665880 1
0.259815 0.139319 0.241660 -0.065260 0.026517 0.997516 2
0.268787 0.147704 0.241934 0.025467 -0.049999 0.998425 2
0.263966 0.134604 0.243063 -0.073273 0.040827 0.996476 2
0.268543 0.147910 0.242209 -0.814028 -0.309161 -0.491710 2
0.255329 0.134932 0.241660 -0.065560 0.023169 0.997580 2
0.268421 0.138853 0.242667 0.064024 0.057695 0.996279 2
0.147968 -0.099397 -0.231821 0.437184 -0.855905 0.276219 3
0.152210 -0.097223 -0.235117 -0.677031 0.349070 0.647904 3
0.153278 -0.098543 -0.228159 -0.520559 -0.812856 0.261311 3
0.551746 0.470343 -0.231363 0.874583 0.020634 0.484437 1
0.600514 0.501906 -0.324625 0.881350 0.112983 0.458756 1
0.558125 0.474799 -0.241190 0.832375 -0.011709 0.554089 1
0.584919 0.493239 -0.289224 0.876394 0.173393 0.449297 1
0.576222 0.479254 -0.268167 0.859195 0.070255 0.506802 1
0.569660 0.474699 -0.257455 0.833472 -0.010727 0.552457 1
0.496845 0.430228 -0.112344 0.893763 0.170651 0.414808 1
0.149372 0.189719 -0.633646 -0.877812 -0.477932 -0.032059 3
0.148335 0.183730 -0.549905 -0.871684 -0.489445 0.024697 3
0.122212 -0.127145 -0.197763 0.008860 0.977717 0.209738 3
0.121601 -0.121675 -0.214395 -0.189673 0.887310 0.420363 3
0.208485 0.158545 0.230551 -0.803622 -0.131356 0.580463 2
0.212299 0.153815 0.233786 -0.717277 -0.410041 0.563365 2
0.208943 0.149580 0.225729 -0.670049 -0.416060 0.614759 2
0.206257 0.149908 0.223654 -0.659317 -0.346649 0.667185 2
0.205463 0.163412 0.226431 -0.869669 -0.171195 0.462999 2
0.205219 0.154585 0.225119 -0.719021 -0.252327 0.647565 2
0.153645 0.176825 -0.839334 -0.773860 -0.628607 0.077418 3
0.030933 0.675223 0.639822 0.871355 0.093290 0.481702 1
0.023792 0.661986 0.651968 0.825392 0.091205 0.557145 1
0.030354 0.666418 0.641165 0.866761 0.048046 0.496404 1
0.037403 0.670889 0.627615 0.901193 0.098486 0.422080 1
0.038838 0.679785 0.621420 0.906158 0.165090 0.389389 1
0.045948 0.675497 0.605795 0.904927 0.166709 0.391555 1
0.047901 0.684439 0.596640 0.897816 0.162569 0.409264 1
0.054188 0.680075 0.585593 0.867798 0.154685 0.472229 1
0.055042 0.688918 0.582632 0.834313 0.075845 0.546048 1
0.060597 0.684500 0.575613 0.805971 0.065169 0.588357 1
0.061085 0.693312 0.574637 0.815385 0.032009 0.578034 1
0.066761 0.688887 0.567007 0.816372 0.076521 0.572435 1
0.067494 0.697722 0.564780 0.843851 0.062006 0.532983 1
0.073383 0.693327 0.555777 0.844671 0.130819 0.519055 1
0.074268 0.702162 0.552847 0.867872 0.058495 0.493333 1
0.080372 0.697791 0.542685 0.856027 0.152493 0.493927 1
0.087483 0.702269 0.528830 0.873094 0.130464 0.469773 1
0.094868 0.706778 0.513297 0.859522 0.211749 0.465171 1
0.088825 0.711150 0.523245 0.879949 0.173604 0.442211 1
0.096546 0.715681 0.505911 0.857348 0.216928 0.466794 1
0.102284 0.711272 0.497885 0.832195 0.255899 0.491901 1
0.103718 0.720183 0.491629 0.845542 0.196776 0.496324 1
0.110676 0.724646 0.478690 0.849386 0.117549 0.514515 1
0.122486 0.715834 0.460684 0.850510 0.157683 0.501766 1
0.123432 0.724692 0.457266 0.844362 0.069819 0.531205 1
0.117420 0.729071 0.466849 0.849531 0.073924 0.522334 1
0.118153 0.737913 0.464651 0.846147 0.117714 0.519788 1
0.129871 0.729109 0.447165 0.844358 0.126193 0.520706 1
0.131123 0.737997 0.441946 0.857725 0.235944 0.456770 1
0.136860 0.733572 0.433981 0.861927 0.259980 0.435308 1
0.139454 0.742598 0.421194 0.869903 0.286818 0.401254 1
0.145741 0.738234 0.410178 0.889199 0.258639 0.377402 1
0.148060 0.747198 0.399100 0.892956 0.175215 0.414644 1
0.168537 0.751791 0.360434 0.859986 -0.128764 0.493805 1
0.168293 0.760542 0.363486 0.861691 -0.077795 0.501434 1
0.155384 0.751707 0.383933 0.876757 -0.029139 0.480049 1
0.174885 0.756201 0.350760 0.850326 -0.099192 0.516824 1
0.181355 0.760626 0.340445 0.858896 0.024332 0.511571 1
0.188007 0.765059 0.329123 0.844270 0.156264 0.512631 1
0.182179 0.769461 0.337790 0.870591 0.135091 0.473097 1
0.189411 0.773962 0.323111 0.847340 0.204101 0.490262 1
0.193653 0.760626 0.321585 0.835178 0.192531 0.515179 1
0.196613 0.778433 0.308859 0.832857 0.223436 0.506384 1
0.207661 0.769568 0.295035 0.830848 0.202873 0.518203 1
0.029560 0.657576 0.643668 0.858709 0.080644 0.506078 1
0.036549 0.662047 0.630484 0.886073 0.079547 0.456669 1
0.044239 0.666556 0.613394 0.899933 0.127826 0.416871 1
0.052570 0.671164 0.592673 0.884024 0.180799 0.431061 1
0.059834 0.675665 0.577902 0.818224 0.134938 0.558839 1
0.072315 0.684447 0.559897 0.793104 0.143422 0.591959 1
0.079029 0.688887 0.548300 0.817031 0.218310 0.533667 1
0.086079 0.693358 0.534903 0.828831 0.239430 0.505680 1
0.093250 0.697844 0.520590 0.839732 0.241714 0.486235 1
0.115131 0.711348 0.475912 0.839121 0.257326 0.479228 1
0.107716 0.706839 0.491415 0.815669 0.325781 0.478071 1
0.129200 0.720274 0.449088 0.830433 0.093612 0.549197 1
0.135517 0.724684 0.439566 0.845805 0.121746 0.519416 1
0.142933 0.729185 0.423941 0.890436 0.225903 0.395083 1
0.152485 0.733900 0.396475 0.905383 0.224212 0.360570 1
0.161457 0.738554 0.372153 0.901574 0.130610 0.412439 1
0.168568 0.743040 0.358267 0.868510 -0.024889 0.495047 1
0.174854 0.747420 0.349051 0.819741 -0.044858 0.570975 1
0.180897 0.751814 0.341147 0.801377 0.033093 0.597244 1
0.187122 0.756201 0.332236 0.804538 0.123640 0.580889 1
0.035633 0.653189 0.633688 0.872921 0.086068 0.480209 1
0.050892 0.662238 0.600150 0.893859 0.145573 0.424058 1
0.058552 0.666754 0.583304 0.852012 0.178783 0.492049 1
0.065205 0.671202 0.571860 0.781970 0.166070 0.600786 1
0.077686 0.680006 0.553885 0.808823 0.170526 0.562784 1
0.084400 0.684439 0.542349 0.819481 0.228552 0.525562 1
0.091541 0.688910 0.528372 0.832781 0.250804 0.493531 1
0.098835 0.693404 0.513388 0.830501 0.249773 0.497877 1
0.113087 0.702361 0.485526 0.824762 0.284846 0.488498 1
0.120808 0.706915 0.468161 0.860495 0.230270 0.454449 1
0.128224 0.711432 0.452567 0.845958 0.173727 0.504157 1
0.134785 0.715857 0.441702 0.835515 0.078811 0.543786 1
0.141438 0.720282 0.430563 0.886927 0.119819 0.446099 1
0.149860 0.724882 0.409232 0.917687 0.168926 0.359603 1
0.159565 0.729613 0.380820 0.912482 0.170105 0.372075 1
0.167744 0.734198 0.360922 0.871834 0.133715 0.471196 1
0.174336 0.738623 0.350058 0.792602 0.089436 0.603145 1
0.180225 0.742972 0.343069 0.727121 0.105795 0.678308 1
0.186115 0.747343 0.336050 0.742162 0.183717 0.644549 1
0.192494 0.751753 0.326315 0.799511 0.214965 0.560868 1
0.199329 0.756201 0.313864 0.833780 0.213755 0.509038 1
0.205097 0.751791 0.305655 0.844742 0.183427 0.502759 1
0.213154 0.765128 0.288382 0.828005 0.182011 0.530357 1
0.214314 0.774001 0.283713 0.831463 0.169716 0.529024 1
0.220081 0.769598 0.275504 0.847400 0.187314 0.496817 1
0.057240 0.657881 0.588614 0.869011 0.133297 0.476500 1
0.064137 0.662337 0.576102 0.810473 0.149499 0.566378 1
0.075703 0.662283 0.561331 0.787845 0.148118 0.597797 1
0.083210 0.675558 0.547080 0.837228 0.128077 0.531644 1
0.089985 0.680006 0.535117 0.855273 0.143390 0.497944 1
0.097187 0.684492 0.520712 0.846266 0.224538 0.483131 1
0.110218 0.684576 0.497672 0.852381 0.169006 0.494858 1
0.111439 0.693449 0.492911 0.840920 0.207549 0.499778 1
0.118763 0.697951 0.477805 0.876148 0.200652 0.438296 1
0.134052 0.707014 0.443961 0.854323 0.122058 0.505208 1
0.140614 0.711439 0.433249 0.865366 0.085300 0.493827 1
0.148151 0.715964 0.416861 0.913452 0.136219 0.383470 1
0.157673 0.720671 0.389426 0.921359 0.155260 0.356360 1
0.166462 0.725294 0.366324 0.889634 0.155895 0.429242 1
0.173390 0.729758 0.353445 0.800354 0.166442 0.575961 1
0.179463 0.734145 0.345419 0.719745 0.141425 0.679681 1
0.185169 0.738486 0.339407 0.715774 0.115496 0.688715 1
0.191120 0.742857 0.332053 0.781080 0.167701 0.601490 1
0.197834 0.747298 0.320334 0.833293 0.203301 0.514092 1
0.212055 0.756247 0.292654 0.841499 0.134048 0.523365 1
0.218647 0.760687 0.281638 0.842786 0.168764 0.511107 1
0.226063 0.765196 0.266043 0.861363 0.226140 0.454879 1
0.056080 0.649001 0.593283 0.877684 0.162905 0.450703 1
0.063252 0.653487 0.579184 0.843337 0.118183 0.524229 1
0.069538 0.657896 0.569846 0.790898 0.088735 0.605481 1
0.082264 0.666716 0.550406 0.837447 0.135172 0.529539 1
0.089192 0.671164 0.537650 0.864609 0.096343 0.493122 1
0.096058 0.675619 0.525076 0.864407 0.093690 0.493986 1
0.117268 0.689055 0.484213 0.862298 0.166518 0.478241 1
0.132923 0.698149 0.448416 0.872167 0.185007 0.452876 1
0.139881 0.702605 0.435507 0.847429 0.120920 0.516955 1
0.146687 0.707068 0.423209 0.884815 0.156686 0.438806 1
0.155415 0.711691 0.400229 0.904519 0.219907 0.365358 1
0.164906 0.716399 0.373160 0.886651 0.242554 0.393722 1
0.172260 0.720900 0.357779 0.813614 0.222894 0.536982 1
0.178516 0.725302 0.348807 0.739963 0.204236 0.640892 1
0.184559 0.729674 0.340842 0.764089 0.095342 0.638027 1
0.190479 0.734038 0.333701 0.813078 -0.023956 0.581662 1
0.196644 0.738432 0.325034 0.847420 0.052675 0.528304 1
0.203632 0.742895 0.311972 0.869379 0.118370 0.479760 1
0.210957 0.747397 0.296805 0.861900 0.127954 0.490669 1
0.217762 0.751845 0.284628 0.849304 0.081551 0.521568 1
0.224445 0.756277 0.273245 0.871841 0.111855 0.476846 1
0.231983 0.760802 0.256979 0.864298 0.224034 0.450331 1
0.234120 0.769766 0.246878 0.849446 0.292477 0.439203 1
0.062122 0.644629 0.583548 0.858054 0.171347 0.484131 1
0.066334 0.631293 0.582114 0.855083 0.232421 0.463480 1
0.068867 0.649069 0.571677 0.819517 0.087027 0.566408 1
0.074909 0.653448 0.563742 0.794985 0.047031 0.604803 1
0.081135 0.657851 0.554800 0.826293 0.095187 0.555139 1
0.087025 0.653441 0.545981 0.863212 0.094634 0.495893 1
0.095387 0.666800 0.527060 0.866224 0.092879 0.490947 1
0.108967 0.675696 0.502890 0.853751 0.111666 0.508566 1
0.114735 0.671278 0.494620 0.858880 0.119561 0.498027 1
0.122028 0.675780 0.479727 0.883243 0.145240 0.445855 1
0.129780 0.680319 0.462210 0.880069 0.175804 0.441103 1
0.138722 0.693732 0.439932 0.850480 0.183595 0.492927 1
0.145557 0.698187 0.427725 0.855298 0.154226 0.494650 1
0.152943 0.702696 0.412222 0.886584 0.203730 0.415286 1
0.159535 0.698355 0.399405 0.897896 0.211740 0.385939 1
0.170643 0.711981 0.364951 0.839858 0.299209 0.452893 1
0.177296 0.716414 0.353629 0.767133 0.240502 0.594698 1
0.183582 0.720801 0.344473 0.798116 0.159252 0.581076 1
0.190205 0.725233 0.333365 0.852121 -0.014564 0.523143 1
0.203022 0.734053 0.313589 0.862728 -0.064269 0.501568 1
0.209889 0.738524 0.300955 0.882408 0.026294 0.469749 1
0.217121 0.743010 0.286398 0.881971 0.005110 0.471276 1
0.230793 0.751913 0.261771 0.884112 -0.015342 0.467023 1
0.251698 0.756544 0.220602 0.881106 0.130302 0.454614 1
0.245472 0.760931 0.231345 0.858341 0.241160 0.452871 1
0.067951 0.640211 0.574912 0.847882 0.139021 0.511633 1
0.074513 0.644644 0.564200 0.818962 0.022699 0.573399 1
0.080586 0.649016 0.556082 0.827141 -0.014230 0.561814 1
0.101307 0.662413 0.517874 0.861092 0.094065 0.499671 1
0.137287 0.684836 0.446066 0.865503 0.157841 0.475384 1
0.144367 0.689307 0.432425 0.855191 0.147840 0.496781 1
0.151508 0.693785 0.418478 0.889588 0.124155 0.439567 1
0.168293 0.702978 0.376242 0.892787 0.187549 0.409582 1
0.176014 0.707533 0.359000 0.844721 0.182749 0.503040 1
0.182545 0.711951 0.348349 0.839820 0.087829 0.535713 1
0.189289 0.716383 0.336569 0.874242 0.047328 0.483178 1
0.196491 0.720869 0.322195 0.879080 0.003001 0.476665 1
0.203114 0.725310 0.311087 0.857096 -0.088183 0.507553 1
0.209431 0.729720 0.301535 0.870579 -0.043712 0.490083 1
0.216389 0.734190 0.288626 0.893099 0.006926 0.449807 1
0.223682 0.738684 0.273611 0.895447 -0.033226 0.443926 1
0.237354 0.738814 0.247183 0.875572 -0.086291 0.475318 1
0.237415 0.747588 0.248648 0.876218 -0.032618 0.480810 1
0.244404 0.752058 0.235464 0.882041 0.057745 0.467621 1
0.058521 0.626746 0.599966 0.855073 0.164252 0.491804 1
0.073750 0.635802 0.566458 0.848244 0.160923 0.504566 1
0.080341 0.640234 0.555502 0.834911 0.018763 0.550066 1
0.086628 0.644629 0.546286 0.845421 -0.017565 0.533812 1
0.093220 0.649054 0.535422 0.866884 0.048475 0.496148 1
0.100330 0.653540 0.521475 0.884970 0.039782 0.463945 1
0.107349 0.658011 0.508170 0.876446 -0.005207 0.481472 1
0.114063 0.662444 0.496573 0.874007 -0.029949 0.484990 1
0.120930 0.666899 0.484061 0.886394 0.052091 0.459992 1
0.136036 0.675955 0.451254 0.875618 0.141466 0.461822 1
0.150440 0.684920 0.422537 0.882042 0.116275 0.456598 1
0.158375 0.689482 0.404013 0.917124 0.086235 0.389162 1
0.166859 0.694090 0.382437 0.919560 0.077606 0.385210 1
0.174854 0.698660 0.363486 0.897608 0.062893 0.436285 1
0.181934 0.703131 0.349905 0.866089 0.036348 0.498566 1
0.188068 0.698759 0.339560 0.857401 0.070699 0.509770 1
0.195942 0.712057 0.323447 0.887671 0.018674 0.460099 1
0.202900 0.716513 0.310446 0.861751 -0.015804 0.507085 1
0.209187 0.720938 0.300955 0.852481 -0.033843 0.521662 1
0.215870 0.725363 0.289664 0.891924 -0.007144 0.452128 1
0.223316 0.729864 0.273917 0.907066 -0.015624 0.420698 1
0.230671 0.734373 0.258627 0.892485 -0.082734 0.443424 1
0.243794 0.743239 0.236960 0.855473 -0.018534 0.517515 1
0.250599 0.747671 0.224936 0.869536 0.103421 0.482920 1
0.257893 0.752188 0.209860 0.866080 0.215910 0.450874 1
0.266041 0.756743 0.190421 0.868461 0.264520 0.419289 1
0.072163 0.626898 0.573416 0.878615 0.177333 0.443384 1
0.064686 0.622374 0.589438 0.882792 0.031622 0.468699 1
0.086140 0.635817 0.547141 0.838918 0.074127 0.539186 1
0.099537 0.644698 0.523978 0.892883 0.046631 0.447867 1
0.106953 0.649207 0.508475 0.896309 0.002206 0.443424 1
0.114063 0.653677 0.494559 0.886036 -0.081226 0.456445 1
0.127613 0.662573 0.470663 0.880280 -0.054262 0.471342 1
0.134754 0.667075 0.456442 0.885247 0.107586 0.452507 1
0.149372 0.676047 0.426566 0.878363 0.124348 0.461536 1
0.156971 0.680594 0.409842 0.902223 0.140944 0.407588 1
0.165760 0.685217 0.386740 0.914239 0.145827 0.378024 1
0.174275 0.689818 0.364920 0.911166 0.076510 0.404875 1
0.181477 0.694319 0.350577 0.876649 0.022872 0.480586 1
0.202351 0.707716 0.311575 0.864136 0.103220 0.492559 1
0.208820 0.712126 0.301230 0.852532 -0.002057 0.522671 1
0.215321 0.716551 0.290732 0.878437 -0.022812 0.477313 1
0.222218 0.712241 0.276175 0.908754 -0.021937 0.416754 1
0.230488 0.725600 0.257681 0.904063 -0.022687 0.426797 1
0.237446 0.730055 0.244803 0.865948 -0.089650 0.492033 1
0.243641 0.734457 0.236014 0.833159 -0.090387 0.545597 1
0.249806 0.738844 0.227469 0.828575 0.010567 0.559779 1
0.256367 0.743269 0.216635 0.847352 0.166302 0.504320 1
0.263722 0.747763 0.201376 0.858922 0.263568 0.439072 1
0.272053 0.752364 0.180594 0.872931 0.276064 0.402220 1
0.085102 0.626952 0.551047 0.851365 0.145082 0.504111 1
0.091938 0.631407 0.538718 0.876783 -0.014250 0.480675 1
0.098774 0.635870 0.526389 0.884559 0.015630 0.466167 1
0.106129 0.640372 0.511069 0.891969 0.082410 0.444522 1
0.113697 0.644888 0.494772 0.890148 0.075533 0.449368 1
0.120930 0.649374 0.480154 0.882835 -0.015564 0.469425 1
0.127552 0.653807 0.469107 0.846340 -0.024515 0.532078 1
0.133869 0.658209 0.459647 0.854199 0.029456 0.519112 1
0.140766 0.662680 0.446860 0.867969 0.148477 0.473904 1
0.154316 0.662802 0.421011 0.879444 0.143988 0.453702 1
0.155567 0.671675 0.416006 0.888679 0.151301 0.432847 1
0.163654 0.676260 0.396658 0.899995 0.195136 0.389783 1
0.172657 0.680914 0.372122 0.898205 0.202115 0.390355 1
0.180683 0.685484 0.353049 0.869683 0.133408 0.475241 1
0.193714 0.694327 0.331961 0.841026 0.229714 0.489803 1
0.208210 0.703307 0.302756 0.861025 0.150623 0.485745 1
0.215077 0.707762 0.290274 0.895736 -0.020631 0.444106 1
0.237232 0.721274 0.244070 0.867045 -0.024451 0.497629 1
0.243580 0.725684 0.234457 0.821513 -0.056321 0.567401 1
0.249500 0.730063 0.227103 0.796595 -0.048929 0.602530 1
0.255512 0.734434 0.219534 0.805969 0.031286 0.591130 1
0.261982 0.738837 0.209219 0.847352 0.171939 0.502426 1
0.269703 0.743369 0.191946 0.878966 0.240966 0.411527 1
0.083790 0.618079 0.556448 0.882271 0.065091 0.466221 1
0.091511 0.622603 0.539267 0.897947 0.034694 0.438734 1
0.105518 0.631537 0.512656 0.879121 -0.055278 0.473383 1
0.112476 0.636008 0.499625 0.875554 0.091631 0.474351 1
0.119801 0.640501 0.484579 0.854696 0.185745 0.484761 1
0.126972 0.644980 0.470450 0.844244 0.105773 0.525419 1
0.133381 0.649397 0.460440 0.828139 0.022084 0.560087 1
0.139637 0.653792 0.451376 0.847475 0.065552 0.526773 1
0.146687 0.658270 0.437796 0.878788 0.129524 0.459299 1
0.161945 0.667326 0.404288 0.898820 0.145671 0.413403 1
0.176991 0.667586 0.370139 0.895533 0.198293 0.398373 1
0.179035 0.676558 0.360526 0.875209 0.217368 0.432157 1
0.186482 0.681067 0.344687 0.839040 0.104490 0.533942 1
0.199268 0.689879 0.325034 0.831098 0.119253 0.543190 1
0.206501 0.694380 0.310477 0.860034 0.216952 0.461816 1
0.214466 0.698935 0.291769 0.903431 0.100490 0.416790 1
0.229511 0.707983 0.259390 0.902061 -0.018465 0.431213 1
0.236683 0.712454 0.245200 0.873451 0.020557 0.486478 1
0.243183 0.716864 0.234854 0.812852 0.040609 0.581053 1
0.249226 0.721243 0.226950 0.772530 0.028045 0.634359 1
0.255085 0.725615 0.220023 0.774859 0.005980 0.632106 1
0.261097 0.729987 0.212393 0.816561 0.087306 0.570619 1
0.267902 0.734442 0.200156 0.865579 0.175842 0.468885 1
0.274128 0.730063 0.189413 0.878932 0.221805 0.422233 1
0.284565 0.743628 0.158682 0.873864 0.254502 0.414234 1
0.183613 0.778357 0.331564 0.868889 0.182047 0.460316 1
0.169911 0.778220 0.358237 0.870144 0.155183 0.467726 1
0.168720 0.769339 0.363028 0.872327 0.063062 0.484838 1
0.162006 0.764914 0.374594 0.842252 0.010307 0.538985 1
0.155781 0.760512 0.383597 0.831254 0.011801 0.555767 1
0.149311 0.756094 0.393912 0.848191 0.157833 0.505629 1
0.141834 0.751585 0.409872 0.866317 0.261590 0.425517 1
0.133411 0.746970 0.431113 0.872095 0.270083 0.408051 1
0.125263 0.742400 0.450766 0.866875 0.214209 0.450158 1
0.111652 0.733488 0.475180 0.820024 0.136594 0.555791 1
0.105000 0.729079 0.486288 0.820780 0.198068 0.535808 1
0.098103 0.724600 0.499136 0.842117 0.228564 0.488464 1
0.090595 0.720091 0.515189 0.871326 0.224093 0.436546 1
0.082478 0.715514 0.534628 0.883373 0.180929 0.432338 1
0.074940 0.710989 0.550986 0.876670 0.108258 0.468753 1
0.068165 0.706541 0.562979 0.848589 0.050513 0.526635 1
0.055531 0.697745 0.581717 0.802536 0.011611 0.596491 1
0.049214 0.693350 0.591147 0.872573 0.120315 0.473436 1
0.040943 0.688750 0.611594 0.899054 0.199326 0.389835 1
0.032246 0.684119 0.634238 0.877238 0.209876 0.431747 1
0.025135 0.679640 0.648154 0.804477 0.148833 0.575035 1
0.098438 0.618307 0.524435 0.893183 0.052203 0.446653 1
0.105427 0.622763 0.511343 0.870033 -0.018797 0.492635 1
0.111744 0.627165 0.501944 0.825341 0.073448 0.559837 1
0.118244 0.631590 0.491385 0.834412 0.219571 0.505515 1
0.132557 0.640562 0.463217 0.838984 0.190361 0.509772 1
0.139118 0.644995 0.452353 0.847512 0.045741 0.528802 1
0.145741 0.649420 0.441306 0.879074 0.030087 0.475735 1
0.159382 0.649557 0.414755 0.885056 0.115071 0.451037 1
0.160694 0.658446 0.409445 0.894283 0.142324 0.424266 1
0.168720 0.663008 0.390372 0.902494 0.141020 0.406962 1
0.185047 0.672163 0.350851 0.866930 0.207388 0.453235 1
0.198048 0.672232 0.328024 0.848501 0.108055 0.518045 1
0.205128 0.685469 0.316397 0.857043 0.067108 0.510855 1
0.212757 0.690009 0.299460 0.901078 0.143960 0.409065 1
0.229084 0.699149 0.260001 0.897594 0.035863 0.439363 1
0.236012 0.703619 0.247092 0.848337 0.079015 0.523527 1
0.242390 0.708044 0.237265 0.793653 0.123368 0.595731 1
0.248493 0.712424 0.229025 0.751239 0.139449 0.645131 1
0.260487 0.721159 0.213889 0.770406 0.069012 0.633807 1
0.012531 0.670836 0.666922 0.811513 0.169479 0.559217 1
0.011555 0.661986 0.670493 0.834817 0.104740 0.540472 1
0.266712 0.725554 0.205038 0.830458 0.117240 0.544605 1
0.291950 0.748129 0.143240 0.840287 0.232254 0.489874 1
0.290394 0.739218 0.150137 0.846046 0.264045 0.463127 1
0.104511 0.613921 0.514578 0.832743 0.215944 0.509811 1
0.111073 0.618346 0.503684 0.804974 0.112494 0.582548 1
0.122669 0.618292 0.488730 0.812984 0.090965 0.575137 1
0.123676 0.627158 0.484946 0.820441 0.194176 0.537747 1
0.130909 0.631636 0.470450 0.832018 0.267765 0.485847 1
0.138325 0.636145 0.454977 0.861488 0.165946 0.479896 1
0.145374 0.640616 0.441336 0.880425 -0.002362 0.474179 1
0.152302 0.645087 0.428458 0.879169 0.004772 0.476485 1
0.167103 0.654089 0.397665 0.874328 0.220358 0.432426 1
0.175312 0.658667 0.377646 0.880872 0.220145 0.419048 1
0.196797 0.663351 0.333151 0.859948 0.181561 0.476995 1
0.204640 0.676680 0.317007 0.860902 0.037948 0.507353 1
0.211506 0.681128 0.304678 0.897653 0.101799 0.428784 1
0.219837 0.685728 0.283743 0.908750 0.136664 0.394331 1
0.228047 0.690306 0.263846 0.890550 0.128859 0.436253 1
0.235005 0.694762 0.250754 0.810707 0.180459 0.556946 1
0.241322 0.699171 0.241415 0.711114 0.280657 0.644630 1
0.253590 0.707930 0.224631 0.732361 0.236200 0.638637 1
0.259785 0.712325 0.215933 0.774586 0.125437 0.619905 1
0.272419 0.721144 0.196982 0.850110 0.149018 0.505081 1
0.280171 0.725676 0.179526 0.861410 0.272617 0.428548 1
0.288258 0.730254 0.160178 0.851688 0.289439 0.436866 1
0.296009 0.734793 0.142813 0.846608 0.230521 0.479703 1
0.303150 0.739279 0.128653 0.843227 0.214106 0.493079 1
