0.386662 -0.217807 -0.058717 0.794151 -0.070411 0.603628 1
0.379521 -0.229922 -0.050279 0.785370 -0.004568 0.619010 1
0.370121 -0.237277 -0.037003 0.827246 0.059614 0.558668 1
0.361454 -0.244845 -0.023026 0.852705 0.025529 0.521769 1
0.352421 -0.252048 -0.007539 0.840356 0.021535 0.541607 1
0.348103 -0.255618 -0.002030 0.771240 -0.000315 0.636545 1
0.343968 -0.259067 0.002700 0.811331 -0.000674 0.584587 1
0.276631 -0.306705 0.110580 0.881155 0.096312 0.462915 1
0.266545 -0.323337 0.131744 0.864545 0.050072 0.500055 1
0.292286 -0.363498 0.088256 0.880309 0.040044 0.472707 1
0.229802 -0.352908 0.188110 0.802360 -0.017883 0.596572 1
0.216252 -0.363864 0.208358 0.826781 0.059361 0.559382 1
0.202580 -0.374331 0.229171 0.811949 0.082041 0.577934 1
0.197270 -0.378451 0.236968 0.806802 0.022860 0.590379 1
0.192311 -0.382327 0.243514 0.798382 -0.062514 0.598897 1
0.187459 -0.386020 0.249190 0.785286 -0.082506 0.613611 1
0.178456 -0.393374 0.262038 0.867947 0.071090 0.491542 1
0.174153 -0.396976 0.271056 0.880348 0.146162 0.451248 1
0.169667 -0.401431 0.281097 0.845416 0.180203 0.502791 1
0.165257 -0.405215 0.288894 0.830056 0.098976 0.548827 1
0.152424 -0.415774 0.306762 0.828195 -0.034943 0.559349 1
0.259007 -0.277682 0.138442 0.797819 0.165456 0.579750 1
-0.037593 -0.387301 0.594253 0.770644 0.170204 0.614117 1
-0.272518 -0.338687 0.954192 0.753025 -0.189374 0.630152 1
-0.279537 -0.200442 0.793594 0.728343 0.667135 0.156358 2
-0.271114 -0.201266 0.759856 0.778722 0.612949 0.133737 2
-0.275081 -0.196353 0.756362 0.720783 0.672780 0.166849 2
-0.273143 -0.203280 0.779784 0.714349 0.679847 0.165874 2
0.104619 -0.124576 -0.428269 -0.445285 0.865437 0.229650 3
0.086689 -0.136508 -0.409715 -0.316762 0.913981 0.253575 3
0.093281 -0.124576 -0.444260 -0.275544 0.927561 0.252400 3
-0.081951 -0.142093 -0.304368 0.506245 0.861354 0.042253 3
-0.070308 -0.249331 0.415862 0.363739 0.914706 0.176086 2
-0.062648 -0.268710 0.496581 0.304039 0.948073 0.093366 2
0.080510 -0.418796 0.422790 0.814701 0.039885 0.578508 1
0.028828 -0.517367 0.506042 0.880149 0.045287 0.472533 1
0.024357 -0.521121 0.513854 0.840097 0.021968 0.541991 1
0.019963 -0.525088 0.520263 0.816024 -0.047360 0.576074 1
0.007664 -0.527011 0.537078 0.808412 -0.053894 0.586145 1
0.005650 -0.535220 0.539519 0.813076 -0.000989 0.582157 1
-0.007885 -0.546115 0.558074 0.780454 -0.086589 0.619188 1
-0.013195 -0.549563 0.563079 0.687411 -0.207240 0.696073 1
0.199681 -0.117190 -0.005265 -0.835145 0.543412 0.085069 2
0.196263 -0.120364 -0.020219 -0.777252 0.626671 0.056237 2
-0.030330 -0.553317 0.575515 0.632007 -0.229058 0.740337 1
-0.035579 -0.557193 0.579558 0.736543 -0.116416 0.666297 1
-0.042446 -0.570071 0.590285 0.875384 0.108793 0.471028 1
-0.054027 -0.573977 0.613372 0.850375 0.092847 0.517920 1
-0.067714 -0.583682 0.631621 0.791241 -0.059202 0.608632 1
-0.074596 -0.581851 0.641204 0.812117 -0.030282 0.582708 1
-0.093334 -0.610751 0.666534 0.814802 0.002930 0.579732 1
-0.119854 -0.619540 0.712920 0.870007 0.108808 0.480883 1
-0.538112 0.547940 1.411498 0.863826 -0.003797 0.503775 1
0.125050 0.002347 -1.404755 -0.908232 0.418054 0.018610 3
-0.584651 0.501523 1.471938 0.772920 -0.005076 0.634483 1
-0.589397 0.498471 1.479308 0.857403 0.109274 0.502911 1
0.792515 0.120023 -0.729874 0.858126 0.066729 0.509085 1
0.788380 0.116391 -0.722428 0.852529 0.048517 0.520423 1
0.779500 0.108548 -0.707215 0.857821 0.020051 0.513558 1
0.764256 0.097562 -0.687806 0.750418 -0.164487 0.640170 1
0.759602 0.094174 -0.683427 0.733058 -0.112587 0.670784 1
0.755147 0.090787 -0.678651 0.781355 -0.066186 0.620567 1
0.727421 0.068997 -0.639909 0.883110 -0.025243 0.468486 1
0.710911 0.062558 -0.612107 0.787430 -0.142679 0.599664 1
0.708348 0.054044 -0.611131 0.770400 -0.135324 0.623034 1
0.703663 0.050504 -0.605897 0.799508 -0.138211 0.584538 1
0.698964 0.046872 -0.599763 0.841575 -0.094872 0.531743 1
0.690205 0.039212 -0.584000 0.916655 0.062702 0.394730 1
0.683552 0.039945 -0.565949 0.941012 0.138585 0.308693 1
0.679844 0.035306 -0.551164 0.941627 0.143978 0.304318 1
0.678746 0.026090 -0.545106 0.910154 0.101347 0.401682 1
0.663533 0.019681 -0.515229 0.879871 0.025541 0.474526 1
0.661595 0.010800 -0.511582 0.863737 0.011569 0.503810 1
0.499684 -0.125003 -0.237595 0.709330 -0.163430 0.685669 1
0.482090 -0.125339 -0.211488 0.839817 0.012992 0.542715 1
0.477635 -0.143405 -0.202317 0.910813 0.007459 0.412752 1
-0.474056 0.575589 1.310439 0.903651 0.140949 0.404410 1
0.468876 -0.151736 -0.184159 0.890620 -0.141301 0.432239 1
0.464146 -0.155246 -0.176530 0.875154 -0.075306 0.477948 1
0.446034 -0.169894 -0.147736 0.806715 -0.123904 0.577805 1
0.428563 -0.184390 -0.120377 0.841640 0.044245 0.538224 1
0.418736 -0.191958 -0.106187 0.814626 0.044540 0.578274 1
0.409749 -0.199557 -0.090058 0.839564 0.064925 0.539367 1
0.402577 -0.198245 -0.079820 0.818368 0.063699 0.571154 1
0.397862 -0.201877 -0.073121 0.815484 -0.015277 0.578578 1
0.391316 -0.214267 -0.064576 0.820807 -0.069497 0.566961 1
0.377034 -0.224643 -0.047120 0.798453 -0.044338 0.600422 1
0.372349 -0.228396 -0.040772 0.828634 -0.008594 0.559725 1
0.367558 -0.231997 -0.033326 0.848979 0.001358 0.528425 1
0.355961 -0.234591 -0.014390 0.851053 0.014001 0.524893 1
0.345875 -0.250735 0.001113 0.807025 -0.066512 0.586759 1
0.341755 -0.254214 0.006454 0.847500 -0.103945 0.520518 1
0.336766 -0.258090 0.014175 0.844912 -0.101374 0.525212 1
0.331654 -0.261722 0.021255 0.801129 -0.108164 0.588636 1
0.326725 -0.265323 0.026855 0.779110 -0.072564 0.622673 1
0.307896 -0.279971 0.054076 0.832395 0.026771 0.553536 1
0.268284 -0.314456 0.128112 0.872115 0.077297 0.483157 1
0.261326 -0.313205 0.140151 0.875120 0.059187 0.480272 1
0.222630 -0.351474 0.198287 0.812419 -0.047484 0.581137 1
0.218129 -0.355136 0.204558 0.816875 0.034392 0.575788 1
0.213734 -0.358584 0.211181 0.810115 0.089941 0.579330 1
0.205113 -0.365726 0.224547 0.834760 0.049390 0.548394 1
0.194722 -0.373843 0.240813 0.829697 -0.023558 0.557716 1
0.180577 -0.384738 0.258834 0.811805 -0.063372 0.580480 1
0.176274 -0.388309 0.265075 0.843975 0.042175 0.534722 1
0.172093 -0.391971 0.272994 0.845833 0.184671 0.500463 1
0.163258 -0.400058 0.290908 0.843326 0.159181 0.513286 1
0.159001 -0.403842 0.298278 0.833076 -0.011405 0.553041 1
0.147282 -0.409610 0.314986 0.816193 -0.017313 0.577520 1
0.166691 0.105191 -0.684556 -0.978244 -0.204772 0.033264 3
-0.121868 -0.193240 0.231689 0.497971 0.796226 0.343582 2
-0.125560 -0.195895 0.241576 0.457802 0.805008 0.377332 2
-0.056163 -0.111575 -0.512360 0.177481 0.940916 0.288404 3
-0.050395 -0.116336 -0.496461 0.201872 0.959230 0.197803 3
-0.052257 -0.109042 -0.520844 0.146547 0.888484 0.434879 3
-0.047176 -0.114078 -0.508820 0.109453 0.954594 0.277075 3
-0.573177 0.502164 1.459579 0.756598 -0.071617 0.649947 1
0.079457 -0.074710 -0.939072 -0.356619 0.932448 0.057991 3
0.072926 -0.076785 -0.934724 -0.302372 0.951118 0.062818 3
-0.022075 -0.129031 -0.472123 0.181035 0.924374 0.335795 3
-0.040615 -0.151706 -0.347596 0.282912 0.955367 0.085058 3
-0.042598 -0.153659 -0.327699 0.107151 0.983201 0.147767 3
0.131016 -0.246249 0.328246 0.794164 0.304692 0.525800 1
0.125981 -0.256808 0.342040 0.804434 0.265036 0.531641 1
0.063405 -0.480746 0.447799 0.848835 0.174249 0.499116 1
0.026341 -0.512271 0.510207 0.871590 0.049289 0.487752 1
0.015233 -0.514621 0.527633 0.825682 -0.026476 0.563514 1
0.012684 -0.523623 0.530791 0.813687 -0.055952 0.578604 1
0.000691 -0.525149 0.546676 0.813165 -0.058798 0.579056 1
-0.001491 -0.533786 0.549392 0.821910 -0.011126 0.569509 1
-0.006023 -0.537387 0.556243 0.829474 -0.048977 0.556394 1
-0.023204 -0.542361 0.574447 0.603259 -0.271703 0.749838 1
-0.025569 -0.550204 0.573028 0.569963 -0.292241 0.767944 1
-0.040660 -0.561069 0.586074 0.840802 -0.004790 0.541321 1
-0.044963 -0.565249 0.594161 0.877370 0.053844 0.476783 1
-0.049312 -0.569095 0.603576 0.879706 0.100554 0.464765 1
-0.059062 -0.577273 0.621032 0.812920 -0.021234 0.581988 1
-0.086132 -0.598025 0.656753 0.798339 0.000952 0.602208 1
-0.100261 -0.609134 0.676559 0.846092 0.028638 0.532267 1
-0.104442 -0.612582 0.683761 0.867623 0.067009 0.492687 1
-0.574840 0.493741 1.460342 0.782807 -0.102385 0.613784 1
-0.581920 0.496030 1.468948 0.788633 0.021836 0.614476 1
-0.579204 0.490689 1.465591 0.820123 -0.032979 0.571236 1
-0.583827 0.487546 1.472930 0.865956 0.120140 0.485475 1
0.023976 -0.231326 0.275313 -0.261470 0.954009 0.146629 2
0.123112 -0.050570 -0.539475 -0.386775 0.582457 0.714947 3
0.248082 -0.026126 -0.140214 -0.932874 0.352665 0.073299 2
-0.600811 0.455136 1.510100 0.803760 -0.118378 0.583057 1
-0.607372 0.457639 1.518951 0.764449 -0.065861 0.641312 1
0.789891 0.125119 -0.726304 0.851482 0.086207 0.517250 1
0.781666 0.117673 -0.711701 0.847370 0.074300 0.525778 1
0.772038 0.109769 -0.695329 0.830425 -0.034735 0.556046 1
0.766682 0.106168 -0.688722 0.763777 -0.099178 0.637815 1
0.752659 0.096036 -0.675218 0.792274 -0.048074 0.608269 1
0.748311 0.092496 -0.668961 0.841851 -0.015975 0.539473 1
0.741032 0.093625 -0.657044 0.846307 -0.033546 0.531637 1
0.736546 0.089963 -0.650422 0.820872 -0.096523 0.562897 1
0.727528 0.082700 -0.638474 0.855360 -0.090748 0.510023 1
0.698613 0.060605 -0.596116 0.811053 -0.123759 0.571731 1
0.691746 0.048032 -0.587205 0.868199 -0.031877 0.495191 1
0.669789 0.032559 -0.527894 0.884405 0.076205 0.460458 1
0.668171 0.023404 -0.523179 0.872574 0.078216 0.482179 1
0.240757 0.002316 -0.268235 -0.912217 0.275719 0.303049 2
0.241566 -0.002872 -0.259095 -0.933063 0.305573 0.189785 2
-0.425869 0.057553 1.102309 0.961363 -0.190069 0.199136 2
-0.418697 0.002500 1.117904 0.961011 0.253542 0.110339 2
-0.421398 0.007779 1.120635 0.902790 0.401738 0.153547 2
0.497181 -0.119937 -0.233994 0.699416 -0.324583 0.636760 1
0.492955 -0.123416 -0.227357 0.825418 0.019353 0.564190 1
0.479741 -0.134311 -0.207108 0.878948 0.024984 0.476263 1
0.471241 -0.142764 -0.187043 0.909208 -0.055140 0.412674 1
0.466649 -0.146945 -0.178544 0.858599 -0.071803 0.507594 1
0.462025 -0.150149 -0.172105 0.843807 -0.037444 0.535338 1
0.457203 -0.153750 -0.164384 0.866976 0.004040 0.498334 1
0.452488 -0.157626 -0.155640 0.861020 0.005618 0.508540 1
0.438893 -0.168277 -0.137925 0.792631 -0.111901 0.599345 1
0.432316 -0.166659 -0.128861 0.830390 -0.016957 0.556925 1
0.430745 -0.175021 -0.125733 0.854264 0.064010 0.515883 1
0.421101 -0.183261 -0.110246 0.809594 0.019401 0.586670 1
0.416157 -0.186923 -0.103120 0.833137 0.101988 0.543582 1
0.416874 -0.194369 -0.103028 0.854833 0.078390 0.512948 1
0.407155 -0.194522 -0.086976 0.834574 0.118734 0.537948 1
0.374821 -0.219638 -0.043336 0.816863 -0.092978 0.569289 1
0.370167 -0.223422 -0.036988 0.845084 -0.045563 0.532688 1
0.347355 -0.242129 -0.000047 0.845385 0.002733 0.534150 1
0.343159 -0.245883 0.006118 0.850940 -0.086589 0.518077 1
0.336003 -0.244723 0.018615 0.851489 -0.097713 0.515189 1
0.334034 -0.253238 0.019805 0.843895 -0.125385 0.521651 1
0.324208 -0.260287 0.030822 0.788463 -0.139155 0.599135 1
0.319264 -0.263888 0.036773 0.814763 -0.092685 0.572338 1
0.314442 -0.267550 0.043548 0.836762 -0.012486 0.547425 1
0.305562 -0.274875 0.057418 0.833549 0.004848 0.552424 1
0.298710 -0.273410 0.067718 0.829808 -0.010863 0.557944 1
-0.269054 -0.199344 0.740508 0.810953 0.557144 0.178734 2
-0.265880 -0.204654 0.739577 0.840153 0.515230 0.169356 2
0.250203 -0.315982 0.161239 0.871393 0.088795 0.482483 1
0.255101 -0.326205 0.153670 0.875469 0.104095 0.471931 1
0.245671 -0.319858 0.169433 0.848610 0.064344 0.525091 1
0.250630 -0.330142 0.162383 0.849314 0.064533 0.523929 1
0.318608 -0.338656 0.037871 0.839005 0.112192 0.532432 1
0.310185 -0.344546 0.053237 0.852314 0.118805 0.509358 1
0.224659 -0.343020 0.196853 0.798333 -0.120712 0.589994 1
0.219914 -0.346530 0.202239 0.765291 -0.065833 0.640309 1
0.215443 -0.349826 0.207595 0.744463 0.055364 0.665364 1
0.211339 -0.353244 0.213225 0.785899 0.149036 0.600126 1
0.207448 -0.356662 0.219543 0.816329 0.126656 0.563529 1
0.202992 -0.360812 0.227386 0.848663 0.096184 0.520114 1
0.197453 -0.365237 0.236968 0.850977 0.008406 0.525136 1
0.178410 -0.379489 0.262328 0.785489 -0.063725 0.615586 1
0.173985 -0.382815 0.268172 0.803880 0.031061 0.593979 1
0.169667 -0.386691 0.275313 0.832766 0.136255 0.536596 1
0.161000 -0.394748 0.292876 0.852133 0.187123 0.488727 1
0.156422 -0.398776 0.302062 0.849190 0.070457 0.523367 1
0.151890 -0.402347 0.309096 0.826086 -0.036745 0.562345 1
0.056920 -0.332644 0.453246 0.687862 -0.141563 0.711903 1
0.052052 -0.335635 0.457244 0.692928 -0.090414 0.715316 1
0.186543 -0.115176 -0.113435 -0.514998 0.796878 0.315851 2
-0.243953 -0.328006 0.908141 0.816843 -0.137958 0.560121 1
-0.128551 -0.143619 -0.040147 0.600708 0.793700 0.095865 2
-0.134899 -0.140689 -0.026643 0.596342 0.786564 0.160289 2
-0.353298 -0.289187 1.069869 0.739558 -0.265742 0.618414 1
-0.216548 -0.255343 0.754348 0.535237 0.844302 0.025990 2
0.016881 -0.095035 -0.540589 0.278745 0.732892 0.620621 3
0.012166 -0.098056 -0.536576 0.183044 0.662131 0.726689 3
0.155018 0.014462 -0.671265 -0.926277 0.371688 -0.062121 3
0.132344 -0.021121 -0.892838 -0.702840 0.711295 -0.008719 3
0.129796 -0.024570 -0.913331 -0.744831 0.666694 -0.027320 3
0.024083 -0.506808 0.513229 0.846507 0.072578 0.527407 1
0.013127 -0.509341 0.530883 0.851327 0.025308 0.524025 1
0.010090 -0.518283 0.534804 0.808045 -0.064116 0.585622 1
-0.003917 -0.528750 0.553405 0.843816 -0.049406 0.534354 1
-0.013698 -0.536075 0.567474 0.770611 -0.131374 0.623618 1
-0.020534 -0.534091 0.575088 0.665678 -0.202058 0.718363 1
-0.035076 -0.543429 0.582854 0.639604 -0.254113 0.725488 1
-0.038188 -0.552005 0.583572 0.784420 -0.109585 0.610472 1
-0.057125 -0.568545 0.617751 0.858603 0.049097 0.510285 1
-0.068325 -0.570102 0.634017 0.802242 -0.075303 0.592231 1
-0.088756 -0.578952 0.660415 0.803538 -0.019082 0.594947 1
-0.093685 -0.596713 0.666488 0.801454 0.001185 0.598055 1
-0.098186 -0.600253 0.673019 0.836585 0.003088 0.547828 1
-0.107387 -0.594089 0.687682 0.840863 -0.020245 0.540869 1
0.120594 -0.043735 -0.986100 -0.946124 0.319274 0.053973 3
0.783406 0.126584 -0.715852 0.869518 0.055681 0.490753 1
0.774601 0.118802 -0.699311 0.865911 0.010410 0.500090 1
0.769398 0.114926 -0.691270 0.808128 -0.040786 0.587593 1
0.764088 0.111264 -0.685212 0.732006 -0.086953 0.675726 1
0.754643 0.104520 -0.676621 0.759297 -0.107142 0.641863 1
0.750172 0.101041 -0.671372 0.821423 -0.095251 0.562308 1
0.745656 0.097379 -0.664506 0.854872 -0.062820 0.515022 1
0.731587 0.099973 -0.640931 0.833295 -0.110582 0.541656 1
0.717961 0.074948 -0.621018 0.880826 -0.015978 0.473170 1
0.703663 0.064084 -0.602219 0.792654 -0.147163 0.591644 1
0.693791 0.056912 -0.589646 0.835361 -0.078718 0.544037 1
0.687245 0.058499 -0.579652 0.863136 -0.015992 0.504718 1
0.683018 0.054471 -0.570695 0.926064 0.104070 0.362734 1
0.678792 0.049924 -0.556260 0.934785 0.171023 0.311334 1
0.677250 0.040189 -0.545838 0.918737 0.155731 0.362864 1
0.673604 0.036252 -0.536027 0.900564 0.108553 0.420952 1
0.496998 -0.111880 -0.225373 0.556359 -0.569482 0.605108 1
0.490468 -0.118381 -0.224168 0.768628 -0.159694 0.619442 1
0.477787 -0.129092 -0.203614 0.906412 0.027440 0.421503 1
0.468922 -0.137485 -0.182298 0.900134 0.041758 0.433607 1
0.464085 -0.141421 -0.174119 0.833211 -0.013245 0.552796 1
0.459370 -0.144839 -0.168076 0.829431 -0.031063 0.557745 1
0.454731 -0.148501 -0.160508 0.872842 -0.014768 0.487779 1
0.450093 -0.152499 -0.151826 0.864167 0.002019 0.503201 1
0.445607 -0.156222 -0.144807 0.833961 -0.059886 0.548564 1
0.440983 -0.159793 -0.138932 0.795392 -0.118628 0.594373 1
0.428486 -0.169986 -0.122788 0.859190 0.033081 0.510586 1
0.419285 -0.177402 -0.107499 0.819464 -0.036162 0.571989 1
0.413533 -0.181949 -0.099595 0.815147 -0.015980 0.579033 1
0.401677 -0.184360 -0.081239 0.838867 0.114175 0.532228 1
0.399861 -0.193301 -0.076478 0.843060 0.036934 0.536549 1
0.390461 -0.200625 -0.061906 0.844275 -0.034442 0.534802 1
0.381306 -0.207828 -0.049485 0.802575 -0.097563 0.588519 1
0.369908 -0.209476 -0.034226 0.812740 -0.087867 0.575962 1
0.358006 -0.225650 -0.017701 0.834221 -0.000258 0.551430 1
0.353428 -0.229342 -0.010682 0.840792 0.045892 0.539410 1
0.344822 -0.236911 0.003707 0.853913 0.051575 0.517853 1
0.333439 -0.239596 0.023055 0.846142 -0.005694 0.532928 1
0.331349 -0.248263 0.025024 0.807093 -0.114232 0.579269 1
0.311924 -0.262362 0.047881 0.819559 -0.087765 0.566233 1
0.307515 -0.265994 0.054366 0.830654 -0.002797 0.556782 1
0.217213 -0.341586 0.205535 0.706233 -0.059357 0.705487 1
0.205403 -0.351047 0.220840 0.822653 0.167854 0.543200 1
0.201054 -0.355411 0.229705 0.859142 0.122282 0.496913 1
0.195454 -0.359927 0.240234 0.861040 0.064432 0.504439 1
0.190159 -0.363772 0.248305 0.829537 -0.026938 0.557802 1
0.185368 -0.367282 0.254821 0.797668 -0.062717 0.599826 1
0.173695 -0.368838 0.268584 0.757034 -0.039582 0.652175 1
0.166859 -0.381442 0.277984 0.819852 0.115888 0.560725 1
0.153752 -0.393466 0.305785 0.862296 0.129671 0.489522 1
0.149205 -0.397128 0.312911 0.794296 0.037312 0.606383 1
0.054280 -0.251895 0.396041 -0.068012 0.941753 0.329355 2
-0.101665 -0.236972 0.371368 0.442557 0.896547 0.018598 2
-0.178737 -0.240878 0.590621 0.664322 0.668658 0.334025 2
-0.172283 -0.228305 0.552993 0.534077 0.836988 0.119217 2
-0.152675 -0.212466 0.447143 0.714225 0.639118 0.285327 2
-0.235424 -0.271976 0.897262 0.837724 0.406374 0.364798 1
-0.232540 -0.277347 0.895583 0.858888 0.274249 0.432549 1
-0.239101 -0.274570 0.907394 0.874281 0.198040 0.443184 1
0.229390 0.196225 -0.134019 -0.949795 -0.307080 0.059922 2
-0.123928 -0.118289 -0.258012 0.616630 0.783389 0.077906 3
-0.124767 -0.119784 -0.231492 0.566471 0.821670 0.062998 3
-0.109478 -0.103427 -0.425477 0.660995 0.739864 0.125247 3
-0.110973 -0.105166 -0.402665 0.601916 0.790124 0.115760 3
-0.147914 -0.269320 0.687148 0.119170 0.765021 0.632884 2
0.008076 -0.513186 0.538283 0.822323 -0.084655 0.562688 1
-0.001628 -0.520328 0.550902 0.831099 -0.087673 0.549170 1
-0.011318 -0.527072 0.565459 0.826313 -0.049916 0.560995 1
-0.016048 -0.531009 0.571303 0.768040 -0.060979 0.637492 1
-0.027339 -0.532474 0.581161 0.590298 -0.282158 0.756264 1
-0.045085 -0.550632 0.593825 0.857727 0.003168 0.514096 1
-0.049617 -0.554843 0.602050 0.874996 0.046606 0.481882 1
-0.054363 -0.558993 0.611480 0.874108 0.088732 0.477558 1
-0.083705 -0.575351 0.654082 0.800209 -0.061755 0.596533 1
-0.096218 -0.591372 0.670226 0.830110 -0.029356 0.556826 1
-0.109218 -0.602786 0.691314 0.865319 0.063347 0.497203 1
-0.118236 -0.610904 0.708404 0.866583 0.059649 0.495455 1
0.117299 -0.041965 -1.016831 -0.801539 0.539046 0.258777 3
0.183934 -0.139621 0.028823 -0.555926 0.826377 0.089704 2
0.234013 -0.004031 -0.301164 -0.993800 0.026534 0.107967 2
0.784916 0.135495 -0.720124 0.871016 0.096052 0.481773 1
0.781025 0.131650 -0.712098 0.896810 0.052043 0.439343 1
0.776799 0.127744 -0.703416 0.885963 0.002739 0.463748 1
0.772007 0.123685 -0.694657 0.852993 -0.034758 0.520763 1
0.766774 0.119931 -0.687547 0.768372 -0.068475 0.636330 1
0.759221 0.121701 -0.678971 0.748773 -0.075301 0.658535 1
0.756794 0.112943 -0.677338 0.728376 -0.109185 0.676422 1
0.754414 0.118039 -0.673402 0.808384 -0.119886 0.576318 1
0.747563 0.105954 -0.666184 0.852202 -0.136438 0.505110 1
0.738377 0.098538 -0.651963 0.852079 -0.114896 0.510647 1
0.722752 0.092587 -0.628419 0.848708 -0.081024 0.522619 1
0.718083 0.088895 -0.620835 0.874067 -0.028589 0.484964 1
0.713231 0.085111 -0.612367 0.864973 -0.015350 0.501584 1
0.698994 0.074185 -0.593751 0.788076 -0.151908 0.596540 1
0.694188 0.070706 -0.588197 0.812785 -0.116916 0.570712 1
0.663380 0.033811 -0.516190 0.936975 0.000609 0.349396 1
0.487996 -0.113284 -0.220734 0.784282 -0.313861 0.535156 1
0.479817 -0.120242 -0.207475 0.877986 -0.134926 0.459278 1
0.475590 -0.123843 -0.199357 0.903120 0.050923 0.426358 1
0.466465 -0.131869 -0.178590 0.875523 0.085445 0.475562 1
0.461323 -0.136142 -0.170258 0.843143 -0.003746 0.537676 1
0.456700 -0.139926 -0.163484 0.858592 -0.055896 0.509603 1
0.447667 -0.147433 -0.147401 0.866356 -0.051943 0.496718 1
0.443318 -0.151065 -0.140580 0.848344 -0.111032 0.517672 1
0.438679 -0.154757 -0.134644 0.810639 -0.169061 0.560610 1
0.434071 -0.158267 -0.129716 0.788216 -0.162197 0.593640 1
0.429997 -0.161807 -0.124925 0.827355 -0.096116 0.553394 1
0.425923 -0.165317 -0.118119 0.875163 -0.024603 0.483202 1
0.415745 -0.173434 -0.101777 0.812970 -0.088127 0.575599 1
0.410801 -0.176913 -0.095704 0.797539 -0.036524 0.602161 1
0.406147 -0.180636 -0.089036 0.830167 0.063750 0.553858 1
0.397007 -0.188449 -0.072511 0.870383 0.054710 0.489327 1
0.392231 -0.192111 -0.064164 0.855263 -0.008536 0.518124 1
0.382710 -0.185611 -0.048158 0.825112 -0.057462 0.562039 1
0.371861 -0.201297 -0.035859 0.812590 -0.063341 0.579384 1
0.360356 -0.216769 -0.021272 0.823823 -0.035194 0.565753 1
0.341771 -0.217715 0.006728 0.860915 0.049279 0.506357 1
0.338017 -0.235812 0.015288 0.860862 0.050060 0.506370 1
0.321400 -0.241641 0.039641 0.780229 -0.150584 0.607098 1
0.311787 -0.248507 0.050140 0.773193 -0.126652 0.621394 1
0.314259 -0.253604 0.046020 0.806081 -0.085263 0.585631 1
0.309498 -0.257083 0.051894 0.811012 -0.048730 0.582996 1
0.292500 -0.263431 0.076903 0.820420 0.023619 0.571273 1
0.290989 -0.272006 0.079131 0.823187 -0.000269 0.567770 1
0.271046 -0.444644 0.126357 0.870494 0.017460 0.491869 1
0.256825 -0.303042 0.145675 0.853438 0.158580 0.496484 1
0.247517 -0.310916 0.164626 0.839152 0.179850 0.513300 1
0.242955 -0.314761 0.172652 0.821253 0.126411 0.556385 1
0.091038 -0.051547 -1.290986 -0.811926 0.572435 0.114432 3
0.219914 -0.333011 0.204192 0.658126 -0.123512 0.742708 1
0.214558 -0.336490 0.208312 0.673727 -0.032830 0.738251 1
0.207600 -0.334567 0.214690 0.709488 0.007779 0.704674 1
0.206303 -0.342471 0.216872 0.771025 0.127513 0.623908 1
0.202916 -0.345523 0.222640 0.841086 0.179138 0.510376 1
0.198597 -0.349246 0.232055 0.874637 0.142110 0.463481 1
0.175770 -0.360202 0.267379 0.755613 -0.070352 0.651229 1
0.168843 -0.372531 0.274139 0.794081 0.008057 0.607759 1
0.163899 -0.376529 0.281371 0.836756 0.095640 0.539159 1
0.160328 -0.510898 0.289687 0.807133 -0.043244 0.588783 1
0.256733 -0.185763 0.129287 0.796073 -0.066939 0.601487 1
0.248478 -0.188754 0.140487 0.803931 0.045417 0.592986 1
-0.021297 -0.289554 0.560302 0.567691 0.556214 0.606920 1
-0.012767 -0.283999 0.547912 0.672461 0.502210 0.543674 1
-0.009639 -0.289279 0.547347 0.792869 0.366728 0.486693 1
-0.053722 -0.183841 -0.084870 0.257105 0.965357 0.044527 2
-0.057674 -0.129886 -0.433671 0.452985 0.873983 0.175950 3
-0.054607 -0.127566 -0.447129 0.379125 0.873257 0.306082 3
-0.144619 -0.211276 0.349197 0.663630 0.746907 0.041532 2
-0.144176 -0.212283 0.383147 0.545865 0.837839 0.007498 2
-0.139766 -0.215945 0.358428 0.664453 0.747200 -0.013947 2
0.108876 -0.136752 -0.372666 -0.412913 0.896364 0.161353 3
-0.051494 -0.317080 0.620711 0.894302 0.029374 0.446499 1
0.019307 -0.495791 0.518630 0.862404 0.077678 0.500226 1
0.015584 -0.499576 0.525802 0.869620 0.047751 0.491406 1
0.004246 -0.502536 0.545760 0.832937 -0.056355 0.550490 1
0.001408 -0.511600 0.548278 0.819209 -0.093076 0.565892 1
-0.008937 -0.518588 0.562316 0.823566 -0.069853 0.562902 1
-0.011165 -0.513553 0.565581 0.787749 -0.032444 0.615142 1
-0.018032 -0.525729 0.574020 0.749834 -0.051662 0.659605 1
-0.039699 -0.533877 0.590591 0.649531 -0.239239 0.721716 1
-0.042415 -0.541903 0.591140 0.750272 -0.131606 0.647898 1
-0.047054 -0.545718 0.596877 0.819877 0.000261 0.572539 1
-0.051616 -0.549838 0.604751 0.858258 0.105358 0.502288 1
-0.064495 -0.552676 0.628585 0.866996 0.082409 0.491454 1
-0.068920 -0.556674 0.636001 0.840059 -0.008122 0.542434 1
-0.103069 -0.590640 0.681182 0.847421 -0.046929 0.528843 1
-0.114528 -0.592715 0.698928 0.861855 0.061938 0.503358 1
-0.123790 -0.600955 0.716613 0.867190 0.062521 0.494036 1
0.782414 0.140622 -0.716477 0.896829 0.101686 0.430533 1
0.774189 0.132565 -0.697938 0.882940 -0.012603 0.469316 1
0.769337 0.128720 -0.689988 0.837258 -0.047098 0.544777 1
0.749699 0.114469 -0.666947 0.849788 -0.144188 0.507022 1
0.708500 0.081326 -0.604844 0.832297 -0.087531 0.547375 1
0.703724 0.077725 -0.598924 0.797507 -0.139363 0.586993 1
0.689595 0.067197 -0.582200 0.833610 -0.090260 0.544929 1
0.685292 0.063535 -0.575776 0.888518 -0.048363 0.456286 1
0.681019 0.059537 -0.566560 0.935268 0.050033 0.350387 1
0.672719 0.050565 -0.539475 0.927820 0.144519 0.343897 1
0.666783 0.051663 -0.526170 0.906767 0.120528 0.404037 1
0.665226 0.042844 -0.520661 0.909785 0.075138 0.408222 1
0.485280 -0.111575 -0.210404 0.784812 -0.450566 0.425512 1
0.468754 -0.122500 -0.184968 0.876782 0.074120 0.475142 1
0.458973 -0.130954 -0.166749 0.866045 0.067666 0.495365 1
0.454304 -0.135013 -0.158463 0.881366 -0.047325 0.470058 1
0.445408 -0.142520 -0.142457 0.880975 -0.087978 0.464911 1
0.440983 -0.146152 -0.135163 0.850680 -0.180249 0.493816 1
0.436406 -0.149844 -0.129273 0.800679 -0.244183 0.547071 1
0.431904 -0.153415 -0.125031 0.777376 -0.225047 0.587402 1
0.427662 -0.156955 -0.120133 0.837344 -0.084478 0.540110 1
0.418065 -0.164676 -0.103303 0.851834 -0.037891 0.522440 1
0.420979 -0.169467 -0.108964 0.856339 -0.057920 0.513155 1
0.413121 -0.168338 -0.097382 0.775646 -0.074506 0.626756 1
0.403615 -0.175418 -0.085679 0.840131 0.029247 0.541595 1
0.398930 -0.179202 -0.077378 0.868424 0.057368 0.492492 1
0.396245 -0.174045 -0.072862 0.873521 0.058808 0.483222 1
0.387135 -0.181888 -0.055283 0.865453 0.020224 0.500582 1
0.378224 -0.189181 -0.042771 0.769564 -0.061151 0.635634 1
0.376301 -0.197848 -0.041596 0.795321 -0.066660 0.602512 1
0.362675 -0.208255 -0.023728 0.814473 -0.080374 0.574607 1
0.350331 -0.210605 -0.006928 0.820641 -0.060585 0.568224 1
0.353032 -0.215487 -0.011048 0.821329 0.007095 0.570410 1
0.348561 -0.219119 -0.004334 0.840884 0.048812 0.539010 1
0.333058 -0.225528 0.022582 0.856088 0.050706 0.514337 1
0.326207 -0.238040 0.033706 0.818094 -0.037973 0.573830 1
0.306996 -0.252017 0.055602 0.785540 -0.036555 0.617730 1
0.069783 -0.797366 0.425185 0.833155 -0.114292 0.541101 1
0.065419 -0.800235 0.430877 0.798994 -0.114376 0.590362 1
0.298359 -0.651767 0.077071 0.830150 -0.051895 0.555119 1
0.101490 -0.301333 0.378387 0.841822 -0.024304 0.539208 1
0.095768 -0.312747 0.386031 0.828140 -0.015132 0.560317 1
0.211903 -0.331454 0.211166 0.648290 -0.130273 0.750166 1
0.203694 -0.337588 0.219222 0.806334 0.071928 0.587071 1
0.199910 -0.340579 0.226043 0.883093 0.119962 0.453604 1
0.184880 -0.353152 0.256423 0.822349 0.003976 0.568969 1
0.180211 -0.356845 0.262542 0.785377 -0.056921 0.616396 1
0.168599 -0.358462 0.275313 0.753151 -0.045908 0.656243 1
-0.013698 -0.291995 0.554412 0.723129 0.361284 0.588691 1
-0.142101 -0.228091 0.451476 0.555221 0.756195 0.346263 2
-0.247859 -0.249393 0.868484 0.475741 0.858373 0.192004 2
0.006169 -0.116916 -0.515336 -0.021224 0.833093 0.552726 3
-0.002712 -0.115176 -0.516587 0.147507 0.856630 0.494395 3
0.001545 -0.119784 -0.510667 0.209639 0.881017 0.424099 3
-0.140377 -0.215060 0.323379 0.799547 0.594285 0.086893 2
-0.174785 -0.245914 0.594543 0.581303 0.786241 0.209553 2
-0.161281 -0.199283 0.340789 0.605843 0.791354 0.081932 2
-0.209255 -0.208194 0.578948 0.662589 0.674319 0.325989 2
0.002491 -0.104190 -0.530030 -0.058490 0.762977 0.643774 3
0.006657 -0.109408 -0.524735 0.047918 0.761664 0.646198 3
-0.058010 -0.314120 0.634948 0.902269 0.022939 0.430564 1
0.020512 -0.487247 0.515594 0.857775 0.031431 0.513064 1
0.016850 -0.490603 0.522262 0.882042 0.047382 0.468782 1
0.009099 -0.498507 0.538207 0.878223 0.021752 0.477756 1
-0.005855 -0.509860 0.559112 0.810713 -0.059680 0.582394 1
-0.020000 -0.520358 0.576430 0.772216 -0.037659 0.634244 1
-0.024410 -0.523746 0.580901 0.700509 -0.123734 0.702835 1
-0.029491 -0.527408 0.584472 0.629582 -0.214057 0.746864 1
-0.062084 -0.542880 0.621368 0.876685 0.115976 0.466876 1
-0.084102 -0.561984 0.656676 0.799653 -0.105287 0.591160 1
-0.091732 -0.574161 0.664855 0.806919 -0.077039 0.585616 1
-0.096782 -0.578341 0.672027 0.846010 -0.043579 0.531384 1
0.197056 0.151639 -0.381684 -0.760471 -0.635491 0.133547 2
0.185856 0.005002 -0.512269 -0.750861 0.145194 0.644303 3
0.223317 0.217252 -0.105653 -0.845141 -0.529403 0.073956 2
0.193623 0.029965 -0.499436 -0.702408 0.079668 0.707302 3
0.198582 0.032437 -0.496156 -0.643776 0.202452 0.737947 3
0.784108 0.149564 -0.721940 0.889402 0.093935 0.447369 1
0.777226 0.150784 -0.708421 0.892348 0.123486 0.434127 1
0.775792 0.141721 -0.702119 0.897755 0.097902 0.429477 1
0.771489 0.137631 -0.692902 0.867387 0.024222 0.497044 1
0.766682 0.133878 -0.685807 0.778339 -0.064517 0.624520 1
0.756749 0.126859 -0.675401 0.778867 -0.088631 0.620896 1
0.751942 0.123197 -0.668809 0.848891 -0.084378 0.521790 1
0.747181 0.119412 -0.661164 0.859522 -0.109250 0.499286 1
0.742421 0.115720 -0.654054 0.839365 -0.122921 0.529487 1
0.729115 0.105008 -0.636430 0.823839 -0.072161 0.562212 1
0.720494 0.097684 -0.624238 0.830156 -0.034180 0.556483 1
0.713368 0.099271 -0.612992 0.865043 0.008494 0.501626 1
0.699101 0.087766 -0.589875 0.796374 -0.120448 0.592689 1
0.687459 0.072080 -0.577729 0.850894 -0.119847 0.511484 1
0.683125 0.068418 -0.570344 0.906057 -0.076726 0.416141 1
0.678868 0.064511 -0.560578 0.936268 -0.021570 0.350625 1
0.674763 0.060086 -0.548554 0.936692 0.091920 0.337874 1
0.670750 0.055692 -0.536485 0.922581 0.109243 0.370015 1
0.465962 -0.117496 -0.180634 0.844894 -0.101624 0.525192 1
0.458760 -0.116824 -0.168305 0.871683 0.053647 0.487124 1
0.454289 -0.120761 -0.159531 0.883635 0.073674 0.462343 1
0.452061 -0.129977 -0.153901 0.888793 0.017812 0.457962 1
0.442997 -0.137698 -0.136445 0.890329 -0.067646 0.450264 1
0.438466 -0.141360 -0.128495 0.854596 -0.156872 0.495033 1
0.433964 -0.144931 -0.123444 0.751868 -0.234748 0.616107 1
0.429860 -0.148257 -0.120591 0.699328 -0.177419 0.692432 1
0.425496 -0.152286 -0.116746 0.804169 0.008555 0.594339 1
0.420613 -0.155734 -0.107972 0.861512 0.027149 0.507011 1
0.415486 -0.159488 -0.099534 0.791969 0.055224 0.608058 1
0.406041 -0.166446 -0.088868 0.776828 -0.035963 0.628686 1
0.373814 -0.192416 -0.037888 0.772995 -0.001096 0.634411 1
0.369298 -0.196170 -0.031907 0.808273 0.019932 0.588471 1
0.355122 -0.206973 -0.013108 0.808160 -0.113028 0.578016 1
0.345982 -0.214114 -0.000489 0.847733 -0.005757 0.530392 1
0.328267 -0.229190 0.030486 0.842583 0.026468 0.537916 1
0.318547 -0.236575 0.044234 0.786205 -0.078134 0.613006 1
0.315907 -0.231479 0.048064 0.744084 -0.082001 0.663035 1
0.309254 -0.243350 0.053634 0.737498 -0.060606 0.672624 1
0.302998 -0.255038 0.060897 0.818947 0.028862 0.573143 1
0.284947 -0.247836 0.086318 0.816247 0.035330 0.576622 1
0.280705 -0.291415 0.100783 0.905334 0.087613 0.415566 1
0.302891 -0.648776 0.070785 0.822635 -0.108037 0.558211 1
0.241932 -0.300540 0.169448 0.835242 0.202826 0.511109 1
0.091496 -0.316073 0.392867 0.884386 0.095090 0.456968 1
0.214650 -0.322268 0.210860 0.649508 -0.168239 0.741508 1
0.209385 -0.325900 0.214461 0.663713 -0.188839 0.723758 1
0.205128 -0.329593 0.217742 0.736683 -0.112512 0.666813 1
0.200993 -0.332767 0.222930 0.854194 -0.002083 0.519951 1
0.192311 -0.339999 0.241851 0.880805 0.117035 0.458788 1
0.187260 -0.344333 0.252074 0.858285 0.077173 0.507337 1
0.177556 -0.351810 0.266204 0.752812 -0.047817 0.656496 1
0.258778 -0.210849 0.125198 0.853072 -0.004941 0.521769 1
0.044697 -0.332980 0.465728 0.738993 -0.221685 0.636196 1
-0.093730 -0.365298 0.680572 0.933622 -0.058156 0.353508 1
0.034413 -0.191165 -0.007050 -0.076783 0.992277 0.097419 2
-0.027553 -0.118136 -0.496858 0.094251 0.938137 0.333190 3
-0.016460 -0.108584 -0.527024 0.065099 0.888364 0.454501 3
-0.020549 -0.111392 -0.519441 0.147454 0.926934 0.345037 3
-0.011516 -0.113223 -0.517350 0.133283 0.914789 0.381309 3
-0.164272 -0.159488 0.198745 0.568426 0.815864 0.106099 2
-0.166698 -0.161624 0.215911 0.526861 0.822868 0.212853 2
-0.163326 -0.157992 0.172698 0.610249 0.790611 0.050294 2
-0.167980 -0.153232 0.164809 0.710309 0.701685 0.055674 2
-0.128353 -0.160159 0.017165 0.583758 0.792248 0.177676 2
-0.243190 -0.277255 0.915069 0.834413 0.008078 0.551080 1
-0.047756 -0.105960 -0.526276 0.051003 0.820582 0.569248 3
-0.043239 -0.111758 -0.516312 0.007159 0.924671 0.380700 3
-0.233394 -0.245639 0.807906 0.596666 0.802488 0.001932 2
-0.228267 -0.250216 0.818633 0.666007 0.745377 0.029110 2
-0.235118 -0.245181 0.766418 0.568104 0.822694 0.020784 2
-0.229213 -0.249454 0.781737 0.585186 0.810790 0.013323 2
-0.216060 -0.213412 0.603072 0.616065 0.692353 0.375649 2
0.001881 -0.112185 -0.521211 0.022358 0.793173 0.608586 3
0.165516 0.080472 -1.001969 -0.993432 -0.113384 0.015418 3
0.166523 0.076016 -1.040162 -0.998722 -0.045543 -0.021900 3
0.166417 0.071164 -1.024323 -0.999921 0.011354 0.005469 3
-0.020519 -0.281711 0.552734 0.381480 0.705784 0.596944 1
0.152531 -0.299930 0.298843 0.804957 -0.015419 0.593133 1
0.018040 -0.482028 0.519622 0.885098 0.019440 0.464999 1
0.006657 -0.493075 0.542235 0.866473 0.023735 0.498659 1
0.001835 -0.497012 0.549438 0.809267 -0.025351 0.586894 1
-0.008251 -0.504733 0.562575 0.792239 -0.014629 0.610035 1
-0.015712 -0.503512 0.572234 0.790114 -0.048585 0.611031 1
-0.022197 -0.515262 0.579375 0.768039 -0.085357 0.634689 1
-0.029491 -0.513431 0.587966 0.700030 -0.154821 0.697129 1
-0.032146 -0.522037 0.588210 0.640345 -0.219073 0.736183 1
-0.042171 -0.528445 0.594527 0.637835 -0.240781 0.731567 1
-0.049861 -0.526462 0.602676 0.730396 -0.171069 0.661255 1
-0.055034 -0.530459 0.608031 0.804860 -0.059831 0.590440 1
-0.057399 -0.538608 0.611571 0.853997 0.079145 0.514223 1
-0.066738 -0.547549 0.631744 0.880131 0.066528 0.470046 1
-0.075389 -0.555423 0.645797 0.819883 -0.076181 0.567440 1
-0.091976 -0.559970 0.667525 0.794343 -0.099692 0.599233 1
-0.097042 -0.563357 0.673858 0.824693 -0.060883 0.562293 1
-0.102123 -0.567599 0.681426 0.846592 -0.018105 0.531934 1
-0.104595 -0.577548 0.685241 0.852617 -0.043694 0.520706 1
-0.109386 -0.580752 0.692306 0.838818 -0.059180 0.541186 1
-0.117076 -0.587436 0.702880 0.869138 0.035083 0.493323 1
-0.128627 -0.590304 0.724212 0.867612 0.034105 0.496070 1
0.089818 -0.114688 -0.483399 -0.288173 0.875255 0.388439 3
0.196400 0.038053 -0.499482 -0.618094 0.167120 0.768135 3
0.781697 0.154599 -0.717835 0.881668 0.058949 0.468173 1
0.773091 0.146787 -0.698426 0.873395 0.170926 0.456032 1
0.768834 0.142819 -0.689134 0.861129 0.107890 0.496806 1
0.761509 0.144101 -0.678223 0.797913 -0.064450 0.599318 1
0.749455 0.128201 -0.664201 0.844782 -0.017875 0.534812 1
0.744725 0.124356 -0.656220 0.853186 -0.050458 0.519161 1
0.740040 0.120755 -0.649369 0.818976 -0.078779 0.568395 1
0.726536 0.110074 -0.632234 0.806980 -0.063182 0.587189 1
0.703740 0.091428 -0.595826 0.851908 -0.043579 0.521875 1
0.694478 0.084195 -0.584809 0.794773 -0.171630 0.582133 1
0.689763 0.080655 -0.579240 0.811345 -0.121087 0.571890 1
0.685109 0.077024 -0.572389 0.879511 -0.070358 0.470649 1
0.680668 0.073270 -0.563767 0.920703 -0.036737 0.388531 1
0.676610 0.069303 -0.553635 0.934825 0.000027 0.355109 1
0.668629 0.060758 -0.532288 0.929297 0.037426 0.367431 1
0.664555 0.056729 -0.522416 0.915285 0.078199 0.395142 1
0.460438 -0.108035 -0.171861 0.847867 -0.037176 0.528904 1
0.440419 -0.132998 -0.130738 0.885404 0.019946 0.464395 1
0.436009 -0.136691 -0.123643 0.798193 -0.062815 0.599117 1
0.431538 -0.139834 -0.119553 0.650606 -0.125623 0.748953 1
0.427632 -0.142856 -0.117417 0.576408 -0.112966 0.809316 1
0.423405 -0.146884 -0.114518 0.784747 0.104494 0.610944 1
0.403416 -0.161105 -0.085526 0.794619 -0.000054 0.607109 1
0.398396 -0.164920 -0.077851 0.859577 0.061325 0.507313 1
0.384190 -0.176822 -0.050782 0.859569 0.077809 0.505061 1
0.379841 -0.180392 -0.044083 0.760695 0.027161 0.648541 1
0.371220 -0.186740 -0.035386 0.724427 0.060228 0.686716 1
0.366826 -0.190524 -0.029115 0.796983 0.127419 0.590409 1
0.361943 -0.194613 -0.021211 0.836542 0.053094 0.545324 1
0.354527 -0.193362 -0.010362 0.821592 -0.045679 0.568243 1
0.345143 -0.200412 0.002318 0.826560 -0.074853 0.557849 1
0.343403 -0.208896 0.004073 0.852160 -0.051192 0.520772 1
0.339283 -0.212558 0.010894 0.868149 -0.022830 0.495778 1
0.334813 -0.216372 0.018706 0.859549 0.008299 0.510986 1
0.318272 -0.222690 0.045577 0.820675 -0.017690 0.571121 1
0.306813 -0.238101 0.056579 0.731125 -0.080287 0.677503 1
0.302083 -0.241672 0.061782 0.783698 -0.011300 0.621039 1
0.276433 -0.293887 0.110000 0.896497 0.022372 0.442484 1
0.243351 -0.290866 0.163253 0.857580 0.148509 0.492444 1
0.238911 -0.295291 0.172698 0.857235 0.119421 0.500887 1
0.232121 -0.293826 0.184371 0.867164 0.091525 0.489541 1
0.077824 -0.413333 0.426116 0.801834 -0.004560 0.597530 1
0.211934 -0.316775 0.214980 0.686342 -0.205790 0.697557 1
0.207127 -0.320193 0.218383 0.710764 -0.225198 0.666408 1
0.202641 -0.323886 0.222030 0.785408 -0.146235 0.601456 1
0.191258 -0.326236 0.240356 0.875725 0.075894 0.476807 1
0.184788 -0.339511 0.255172 0.862116 0.086738 0.499232 1
0.177769 -0.338321 0.266402 0.828762 0.009194 0.559526 1
0.225514 0.057767 -0.374238 -0.964586 0.169003 0.202513 2
-0.099376 -0.347873 0.698653 0.901538 -0.059475 0.428594 1
-0.095653 -0.345187 0.689345 0.960174 -0.041401 0.276320 1
-0.231975 -0.269504 0.885589 0.698477 0.640262 0.319680 1
0.160008 0.026303 -1.039674 -0.942498 0.331472 0.042699 3
0.157856 0.027646 -1.077607 -0.931725 0.357423 0.064316 3
-0.012996 -0.157107 -0.338456 0.175075 0.984388 0.018156 3
0.275334 -0.280643 0.108886 0.885727 0.241505 0.396438 1
0.268696 -0.278201 0.122481 0.874404 0.249909 0.415889 1
0.271519 -0.283145 0.119125 0.900855 0.149019 0.407742 1
0.009755 -0.476047 0.535720 0.883052 0.023452 0.468690 1
0.004017 -0.487918 0.545791 0.807215 0.044969 0.588542 1
-0.000713 -0.491946 0.552520 0.795828 0.031879 0.604683 1
-0.010692 -0.499484 0.565704 0.800631 0.009020 0.599090 1
-0.022716 -0.501925 0.581817 0.792165 -0.059993 0.607351 1
-0.044765 -0.522983 0.598815 0.663274 -0.262088 0.700983 1
-0.060054 -0.533542 0.615722 0.864495 0.016551 0.502369 1
-0.066768 -0.532626 0.628295 0.884479 0.081655 0.459379 1
-0.071071 -0.536685 0.638061 0.885099 0.105546 0.453277 1
-0.075527 -0.540713 0.647292 0.859947 0.042840 0.508583 1
-0.084682 -0.548343 0.660339 0.805517 -0.097196 0.584547 1
-0.107234 -0.571597 0.689788 0.840775 -0.002322 0.541380 1
-0.111644 -0.575412 0.696242 0.822205 -0.048248 0.567143 1
-0.119365 -0.568515 0.707931 0.831240 -0.052966 0.553385 1
-0.119289 -0.582217 0.706679 0.857588 -0.017372 0.514045 1
0.223103 -0.094882 0.102874 -0.919704 0.385595 0.073899 2
0.219792 -0.103061 0.101501 -0.917761 0.393912 0.050484 2
0.790486 0.162412 -0.734361 0.877831 0.024275 0.478356 1
0.774800 0.155942 -0.705247 0.870453 0.094977 0.483003 1
0.767933 0.157224 -0.693101 0.870017 0.174661 0.461047 1
0.766179 0.148038 -0.686005 0.861475 0.141813 0.487596 1
0.751744 0.136991 -0.667161 0.803384 -0.090576 0.588533 1
0.742283 0.129422 -0.652299 0.844898 0.010532 0.534823 1
0.735264 0.130826 -0.641572 0.823645 -0.044051 0.565392 1
0.719639 0.111783 -0.622743 0.809426 -0.015848 0.587008 1
0.715336 0.108151 -0.616441 0.840046 0.005074 0.542491 1
0.703648 0.105405 -0.595506 0.870592 0.003161 0.491996 1
0.701375 0.096463 -0.591706 0.834841 -0.039954 0.549039 1
0.687489 0.085782 -0.575074 0.820219 -0.075105 0.567098 1
0.678502 0.078183 -0.558900 0.913944 -0.069643 0.399821 1
0.674473 0.074246 -0.548432 0.924499 0.018874 0.380717 1
0.666340 0.065885 -0.526994 0.927482 -0.005799 0.373822 1
0.662190 0.061704 -0.517518 0.935269 0.036984 0.352001 1
0.444905 -0.114749 -0.142899 0.881796 0.076240 0.465428 1
0.442708 -0.124087 -0.136414 0.881897 0.092139 0.462351 1
0.438038 -0.128085 -0.127046 0.839434 0.086401 0.536550 1
0.433568 -0.131534 -0.121003 0.703807 0.038774 0.709332 1
0.429066 -0.134768 -0.117463 0.551902 -0.041286 0.832886 1
0.424916 -0.137698 -0.115418 0.544917 -0.047558 0.837140 1
0.420659 -0.140475 -0.112489 0.784640 0.080837 0.614659 1
0.410054 -0.149020 -0.094239 0.814130 0.102188 0.571620 1
0.400822 -0.155917 -0.082383 0.798971 0.029972 0.600622 1
0.393345 -0.154666 -0.070710 0.862339 0.060875 0.502659 1
0.381413 -0.171817 -0.047547 0.792823 0.120929 0.597334 1
0.377034 -0.175265 -0.041749 0.689115 0.097471 0.718067 1
0.368687 -0.181338 -0.033997 0.716879 0.116379 0.687416 1
0.364384 -0.185245 -0.027223 0.841618 0.113035 0.528112 1
0.356862 -0.184451 -0.013993 0.859095 0.020023 0.511425 1
0.338398 -0.198947 0.013534 0.860561 -0.028601 0.508543 1
0.336720 -0.207522 0.016021 0.871169 -0.033868 0.489815 1
0.327565 -0.215213 0.030685 0.849373 0.013451 0.527621 1
0.320286 -0.214053 0.042312 0.848221 0.015043 0.529428 1
0.313481 -0.226382 0.051467 0.757253 -0.112246 0.643404 1
0.304448 -0.232974 0.059875 0.752640 -0.143857 0.642524 1
0.299763 -0.236423 0.065063 0.800397 -0.084078 0.593544 1
0.294850 -0.240146 0.071670 0.822400 -0.008578 0.568845 1
0.242863 -0.277011 0.163558 0.855210 -0.001595 0.518279 1
0.240437 -0.286014 0.167846 0.871755 0.059036 0.486373 1
0.085347 -0.429782 0.416595 0.832412 0.035861 0.552996 1
0.080983 -0.432528 0.422973 0.814264 0.000400 0.580495 1
0.208073 -0.310367 0.220962 0.718942 -0.216584 0.660465 1
0.197560 -0.313754 0.231475 0.761167 -0.182394 0.622380 1
0.195729 -0.322391 0.232360 0.836484 -0.059516 0.544749 1
-0.019283 -0.339236 0.567290 0.798345 0.001825 0.602197 1
-0.126232 -0.123782 -0.145707 0.780299 0.624862 0.026100 3
-0.131130 -0.120273 -0.123719 0.630708 0.774415 0.049899 3
-0.127117 -0.125308 -0.119569 0.860143 0.500151 0.100013 2
-0.265743 -0.171573 0.631133 0.802143 0.536192 0.262803 2
-0.268398 -0.173556 0.647552 0.884139 0.441478 0.152953 2
-0.265331 -0.179019 0.645324 0.869090 0.451537 0.201982 2
-0.262249 -0.176791 0.631606 0.779566 0.529788 0.334069 2
-0.309764 -0.227206 1.025817 0.773358 0.011077 0.633873 1
-0.314479 -0.230166 1.029922 0.669828 -0.147731 0.727672 1
-0.230205 -0.160190 0.515121 0.644972 0.755433 0.115467 2
-0.213787 -0.187930 0.549148 0.743539 0.619509 0.251710 2
-0.207424 -0.190799 0.535812 0.785603 0.583517 0.205757 2
-0.210155 -0.193179 0.550597 0.761542 0.585825 0.277243 2
-0.098857 -0.209323 0.229522 0.563686 0.784517 0.258441 2
0.005803 -0.479495 0.542632 0.828475 0.025763 0.559434 1
-0.003383 -0.486789 0.555526 0.800502 0.015283 0.599135 1
-0.055416 -0.515811 0.612044 0.722491 -0.194872 0.663349 1
-0.060100 -0.519320 0.617110 0.795636 -0.086564 0.599558 1
-0.064876 -0.523227 0.623931 0.852398 0.005308 0.522866 1
-0.079906 -0.544833 0.653884 0.827024 -0.046035 0.560279 1
-0.089290 -0.551333 0.665755 0.780353 -0.101828 0.616994 1
-0.094280 -0.554782 0.671233 0.772855 -0.069998 0.630711 1
-0.099102 -0.558139 0.677199 0.813878 -0.029934 0.580265 1
-0.106334 -0.557223 0.687942 0.838806 0.004440 0.544413 1
-0.115276 -0.564853 0.701873 0.831451 0.009471 0.555517 1
-0.123821 -0.572330 0.715026 0.856311 -0.004145 0.516444 1
-0.126216 -0.581302 0.719298 0.870227 0.016890 0.492361 1
-0.133510 -0.580050 0.731933 0.866574 0.030355 0.498124 1
0.182423 0.161008 -0.431504 -0.862162 -0.492525 0.118724 2
0.130391 -0.131778 -0.346528 -0.281529 0.951126 0.126887 2
0.763569 0.153134 -0.682969 0.870712 0.141868 0.470886 1
0.759083 0.149137 -0.674409 0.844778 0.000024 0.535118 1
0.754353 0.145474 -0.668397 0.790385 -0.151351 0.593619 1
0.749470 0.141995 -0.663163 0.803198 -0.133230 0.580622 1
0.744557 0.138425 -0.656587 0.843933 -0.017906 0.536149 1
0.730732 0.127316 -0.635941 0.778028 -0.084360 0.622540 1
0.726201 0.123807 -0.630830 0.783977 -0.049377 0.618824 1
0.721669 0.120297 -0.625337 0.794833 -0.021122 0.606460 1
0.717167 0.116849 -0.619233 0.832455 -0.021556 0.553674 1
0.712742 0.113156 -0.612244 0.864130 -0.011113 0.503146 1
0.708180 0.109311 -0.604066 0.878047 0.003284 0.478564 1
0.696995 0.106717 -0.584458 0.832448 -0.055130 0.551354 1
0.692494 0.103055 -0.578553 0.802245 -0.113461 0.586114 1
0.690083 0.094480 -0.577271 0.786973 -0.111547 0.606820 1
0.685414 0.091001 -0.571580 0.893523 -0.122103 0.432097 1
0.668477 0.075223 -0.532838 0.951893 -0.065806 0.299283 1
0.664174 0.070828 -0.521150 0.932534 -0.023062 0.360346 1
0.659840 0.066800 -0.511414 0.959501 -0.012677 0.281419 1
-0.571788 0.561215 1.466552 0.795317 0.008191 0.606138 1
-0.406932 0.685788 1.203338 0.866225 0.100630 0.489416 1
0.449681 -0.110782 -0.152238 0.882193 0.009634 0.470790 1
0.440236 -0.118747 -0.133225 0.864973 0.100836 0.491583 1
0.435704 -0.122622 -0.124955 0.804184 0.109789 0.584153 1
0.431294 -0.126559 -0.119325 0.714528 0.046749 0.698043 1
0.426716 -0.129550 -0.115830 0.610112 -0.066770 0.789497 1
0.422108 -0.132297 -0.113068 0.674431 -0.150269 0.722885 1
0.417653 -0.135135 -0.108582 0.843942 -0.070340 0.531803 1
0.412297 -0.139255 -0.099107 0.861442 0.013577 0.507675 1
0.407444 -0.143588 -0.091035 0.824385 -0.016568 0.565787 1
0.398427 -0.150973 -0.078828 0.836309 -0.061046 0.544849 1
0.388249 -0.158725 -0.061051 0.857903 0.077569 0.507923 1
0.383412 -0.162784 -0.052552 0.830395 0.103602 0.547459 1
0.378941 -0.166415 -0.045747 0.776135 0.099090 0.622732 1
0.374547 -0.169833 -0.040284 0.713491 0.070188 0.697140 1
0.370289 -0.173190 -0.036210 0.708699 0.015621 0.705338 1
0.366322 -0.176364 -0.031876 0.831484 -0.003340 0.555539 1
0.361775 -0.180148 -0.023682 0.883621 0.000654 0.468202 1
0.349720 -0.183414 -0.002763 0.829899 -0.043691 0.556200 1
0.337574 -0.185489 0.014495 0.822149 -0.017191 0.569013 1
0.342824 -0.195407 0.006362 0.834017 -0.025516 0.551148 1
0.333912 -0.202640 0.021133 0.845972 -0.005747 0.533196 1
0.324757 -0.210177 0.034804 0.831001 0.027984 0.555566 1
0.313099 -0.212680 0.053588 0.823400 -0.026591 0.566838 1
0.311192 -0.221255 0.055160 0.784305 -0.127778 0.607074 1
0.302189 -0.228000 0.064101 0.767736 -0.195095 0.610343 1
0.297490 -0.231387 0.069305 0.791036 -0.173548 0.586637 1
0.238148 -0.280704 0.171325 0.850411 0.077182 0.520427 1
0.233586 -0.284854 0.179732 0.850545 0.121321 0.511716 1
0.229542 -0.288699 0.187667 0.862447 0.121238 0.491413 1
0.142857 -0.544528 0.322051 0.817534 0.120479 0.563137 1
0.199894 -0.305240 0.231567 0.719141 -0.217540 0.659934 1
0.179829 -0.328952 0.262267 0.864481 0.092744 0.494035 1
0.175328 -0.333011 0.270110 0.832831 0.068045 0.549329 1
-0.010585 -0.297305 0.553603 0.771243 0.307368 0.557413 1
0.002980 -0.166202 -0.220597 0.042843 0.986170 0.160106 2
-0.190151 -0.321597 0.829681 0.874540 0.058052 0.481467 1
-0.140636 -0.171908 0.134200 0.307312 0.948024 0.082519 2
-0.135479 -0.177585 0.176665 0.093764 0.983199 0.156615 2
-0.177944 -0.133975 0.069640 0.684585 0.719975 0.113927 2
-0.192409 -0.026370 -0.729020 0.846326 0.531762 -0.031018 3
-0.191844 -0.027316 -0.694306 0.904380 0.423599 0.051580 3
-0.301586 -0.121768 0.682418 0.905874 0.389799 0.165675 2
-0.304637 -0.124179 0.699020 0.877299 0.402309 0.261713 2
-0.354885 -0.219821 1.082015 0.910681 -0.075830 0.406090 1
-0.296550 -0.165286 0.749175 0.807452 0.471327 0.354784 2
-0.293239 -0.170657 0.749190 0.777137 0.540758 0.321930 2
-0.299922 -0.167880 0.759612 0.796649 0.534161 0.282882 2
-0.238674 -0.123660 0.371612 0.756270 0.637066 0.149003 2
-0.240627 -0.125583 0.391616 0.740971 0.661438 0.116020 2
-0.177104 -0.247989 0.612426 0.579543 0.800173 0.154444 2
-0.179058 -0.249911 0.632476 0.609061 0.779935 0.144034 2
0.007344 -0.471133 0.539413 0.852960 0.043104 0.520193 1
0.003163 -0.474643 0.546188 0.834190 0.024225 0.550945 1
-0.003963 -0.472537 0.556594 0.810868 -0.003282 0.585219 1
-0.011119 -0.485263 0.565871 0.798393 0.019364 0.601825 1
-0.020610 -0.492709 0.579116 0.801982 0.044948 0.595654 1
-0.025173 -0.496585 0.585311 0.793218 -0.007491 0.608891 1
-0.029949 -0.500308 0.591003 0.768243 -0.058421 0.637487 1
-0.069149 -0.527133 0.631820 0.874885 0.076000 0.478331 1
-0.082271 -0.539248 0.657531 0.822739 0.033968 0.567403 1
-0.087200 -0.542880 0.664016 0.779619 -0.011828 0.626142 1
-0.091671 -0.545962 0.669112 0.748586 -0.021273 0.662696 1
-0.096248 -0.549319 0.674010 0.769947 -0.024285 0.637645 1
-0.101238 -0.553073 0.680266 0.821657 0.014885 0.569788 1
-0.143367 -0.587100 0.750396 0.842005 0.040307 0.537962 1
-0.139324 -0.592532 0.743240 0.884472 -0.071322 0.461111 1
