0.473171 -0.467775 -0.242021 0.786319 -0.124394 0.605168 1
0.468273 -0.475679 -0.238084 0.765706 -0.098425 0.635615 1
0.463527 -0.485079 -0.232637 0.786844 0.072729 0.612852 1
0.459224 -0.498079 -0.223664 0.794829 0.170964 0.582253 1
0.455089 -0.512346 -0.213456 0.804971 0.138645 0.576887 1
0.450619 -0.524096 -0.205659 0.822776 0.031369 0.567499 1
0.446102 -0.535265 -0.198518 0.883437 0.033488 0.467351 1
0.442013 -0.550112 -0.187699 0.919746 0.066986 0.386755 1
0.438259 -0.567873 -0.174028 0.925616 0.039273 0.376422 1
0.433956 -0.580721 -0.165223 0.871494 -0.126330 0.473856 1
0.428951 -0.587740 -0.162141 0.717103 -0.328317 0.614794 1
0.423778 -0.593462 -0.160310 0.727049 -0.268921 0.631728 1
0.418941 -0.601915 -0.155809 0.872592 -0.001246 0.488448 1
0.415050 -0.618547 -0.143235 0.923211 0.116610 0.366173 1
0.411739 -0.639940 -0.125993 0.930156 0.091510 0.355579 1
0.407696 -0.655138 -0.114854 0.899985 -0.027559 0.435049 1
0.403042 -0.665117 -0.108842 0.884855 -0.075341 0.459734 1
0.398693 -0.677736 -0.100267 0.942776 -0.021497 0.332732 1
0.394848 -0.694674 -0.087403 0.967848 -0.008085 0.251405 1
0.726406 0.335981 -0.796388 0.792237 -0.020257 0.609877 1
0.721706 0.326185 -0.790528 0.882663 0.105063 0.458113 1
0.718380 0.305037 -0.773530 0.920440 0.159441 0.356889 1
0.715343 0.281279 -0.753968 0.930341 0.103442 0.351804 1
0.711208 0.266829 -0.743562 0.898656 -0.043926 0.436450 1
0.706493 0.257338 -0.738023 0.819768 -0.152877 0.551914 1
0.701549 0.249693 -0.734300 0.746489 -0.196741 0.635647 1
0.696544 0.242445 -0.730958 0.796040 -0.067425 0.601476 1
0.692104 0.230787 -0.723359 0.864288 0.143245 0.482169 1
0.688549 0.211393 -0.708070 0.882857 0.174962 0.435835 1
0.684856 0.193190 -0.693971 0.907674 0.053240 0.416285 1
0.680370 0.181715 -0.686463 0.901214 -0.157283 0.403826 1
0.675640 0.172392 -0.681153 0.882750 -0.193911 0.427961 1
0.670955 0.162565 -0.675279 0.879348 -0.038295 0.474637 1
0.666652 0.149580 -0.666322 0.870896 0.118816 0.476889 1
0.662822 0.132429 -0.653245 0.879160 0.151189 0.451907 1
0.658993 0.115431 -0.640306 0.903543 0.073693 0.422113 1
0.654812 0.101362 -0.630265 0.913457 -0.004181 0.406913 1
0.650493 0.088545 -0.621492 0.886390 -0.023867 0.462324 1
0.645946 0.077559 -0.614503 0.840015 -0.049134 0.540334 1
0.641231 0.068052 -0.608949 0.814704 -0.081358 0.574142 1
0.636486 0.058882 -0.603761 0.832774 -0.058937 0.550467 1
0.631969 0.047590 -0.596452 0.841800 0.177252 0.509858 1
0.628414 0.028242 -0.581239 0.794075 0.270027 0.544546 1
0.624676 0.010481 -0.567552 0.810929 0.205625 0.547825 1
0.620403 -0.002764 -0.558351 0.883061 0.047367 0.466862 1
0.616329 -0.017702 -0.547456 0.926051 0.042705 0.374974 1
0.612423 -0.034166 -0.535066 0.905151 0.023975 0.424415 1
0.607860 -0.045000 -0.528184 0.837973 -0.176024 0.516543 1
0.602916 -0.052431 -0.524736 0.793475 -0.314948 0.520774 1
0.597896 -0.059465 -0.521592 0.810109 -0.179026 0.558277 1
0.593197 -0.069170 -0.515870 0.821850 0.132089 0.554180 1
0.589382 -0.086199 -0.502946 0.819052 0.257652 0.512610 1
0.586056 -0.107531 -0.485734 0.851420 0.193688 0.487411 1
0.581966 -0.122393 -0.474900 0.871343 0.045541 0.488556 1
0.577465 -0.133669 -0.467668 0.852755 -0.059935 0.518861 1
0.572735 -0.143221 -0.462022 0.830385 -0.059163 0.554040 1
0.568126 -0.153597 -0.455659 0.834553 -0.003071 0.550919 1
0.563610 -0.164873 -0.448381 0.845344 -0.031434 0.533297 1
0.558956 -0.174791 -0.442445 0.856708 -0.098941 0.506223 1
0.554287 -0.184801 -0.436418 0.886632 0.010179 0.462364 1
0.550289 -0.200365 -0.424897 0.883845 0.172001 0.435010 1
0.547085 -0.222612 -0.406831 0.871850 0.211555 0.441725 1
0.543392 -0.240877 -0.392656 0.884080 0.116701 0.452529 1
0.539181 -0.254641 -0.382936 0.890364 -0.007818 0.455181 1
0.534679 -0.265947 -0.375611 0.858283 -0.099664 0.503405 1
0.529842 -0.274538 -0.370973 0.789934 -0.196423 0.580880 1
0.524868 -0.281878 -0.367570 0.787746 -0.231417 0.570879 1
0.519985 -0.289904 -0.363496 0.879235 -0.099278 0.465928 1
0.515651 -0.302706 -0.354661 0.919963 0.087513 0.382111 1
0.512386 -0.324587 -0.336961 0.908312 0.174714 0.380058 1
0.509105 -0.346239 -0.319459 0.884247 0.146881 0.443320 1
0.504955 -0.360460 -0.309297 0.841783 0.046148 0.537839 1
0.500347 -0.370943 -0.302797 0.791617 -0.058694 0.608192 1
0.495449 -0.378847 -0.298799 0.699577 -0.146967 0.699280 1
0.490444 -0.386004 -0.295610 0.714901 0.022474 0.698864 1
0.485927 -0.397173 -0.288407 0.806655 0.205800 0.554035 1
0.482494 -0.417620 -0.272065 0.865516 0.233414 0.443170 1
0.479381 -0.440661 -0.253251 0.894068 0.143536 0.424311 1
0.475246 -0.455172 -0.242753 0.859052 -0.033945 0.510761 1
0.470501 -0.464312 -0.237611 0.804028 -0.158599 0.573049 1
0.465572 -0.472017 -0.233842 0.767577 -0.177092 0.616007 1
0.460705 -0.480288 -0.229493 0.778425 0.013307 0.627597 1
0.456264 -0.492067 -0.221757 0.784701 0.161300 0.598520 1
0.452160 -0.506792 -0.211061 0.795597 0.178723 0.578863 1
0.447857 -0.519915 -0.201936 0.841301 0.080824 0.534490 1
0.443508 -0.532442 -0.193467 0.914227 0.027155 0.404292 1
0.439541 -0.548281 -0.181672 0.935167 0.049417 0.350742 1
0.435741 -0.565691 -0.168336 0.909252 0.038174 0.414493 1
0.431316 -0.577547 -0.160493 0.794976 -0.099282 0.598461 1
0.426250 -0.584291 -0.157655 0.661034 -0.303418 0.686274 1
0.421093 -0.589998 -0.155839 0.752764 -0.221928 0.619754 1
0.416286 -0.598864 -0.150941 0.902352 0.015575 0.430718 1
0.412624 -0.617067 -0.136872 0.935931 0.105237 0.336093 1
0.409344 -0.638765 -0.119310 0.932369 0.077196 0.353169 1
0.405117 -0.652483 -0.109666 0.882449 -0.038880 0.468798 1
0.400387 -0.661943 -0.104127 0.881101 -0.026112 0.472206 1
0.396267 -0.676577 -0.093522 0.942078 0.040819 0.332900 1
0.392757 -0.696352 -0.077867 0.956514 0.061031 0.285230 1
0.723644 0.340055 -0.792512 0.835914 -0.035491 0.547712 1
0.719066 0.329435 -0.785874 0.907867 0.091364 0.409182 1
0.715816 0.307417 -0.768022 0.924248 0.158648 0.347271 1
0.712810 0.283415 -0.748185 0.915555 0.121401 0.383433 1
0.708553 0.270002 -0.738801 0.845115 -0.002715 0.534577 1
0.703792 0.260893 -0.733644 0.760197 -0.109897 0.640331 1
0.698848 0.253416 -0.730134 0.737218 -0.192958 0.647515 1
0.693859 0.246061 -0.726655 0.822065 -0.111648 0.558340 1
0.689373 0.234709 -0.719361 0.884293 0.076059 0.460696 1
0.685726 0.216032 -0.704774 0.882824 0.182582 0.432766 1
0.682247 0.196058 -0.688935 0.900784 0.103417 0.421774 1
0.677944 0.183058 -0.679948 0.906363 -0.126112 0.403238 1
0.673198 0.173872 -0.674745 0.879475 -0.241320 0.410230 1
0.668392 0.165007 -0.669847 0.884704 -0.118606 0.450812 1
0.663936 0.153257 -0.662065 0.887646 0.073265 0.454661 1
0.660106 0.136381 -0.649278 0.887562 0.147557 0.436417 1
0.656429 0.118071 -0.635087 0.900302 0.101646 0.423231 1
0.652294 0.103514 -0.624528 0.903697 0.009822 0.428060 1
0.647884 0.091490 -0.616563 0.872639 -0.037775 0.486902 1
0.643245 0.081282 -0.610292 0.830487 -0.072120 0.552350 1
0.638515 0.071867 -0.604875 0.802713 -0.075273 0.591596 1
0.633770 0.062559 -0.599504 0.799652 -0.037529 0.599289 1
0.629131 0.052305 -0.593217 0.830092 0.125748 0.543263 1
0.625301 0.035337 -0.580339 0.837340 0.227077 0.497290 1
0.621715 0.016249 -0.565370 0.861193 0.182033 0.474564 1
0.617809 -0.000063 -0.553132 0.894846 0.081262 0.438916 1
0.613720 -0.014910 -0.542314 0.883693 0.091009 0.459134 1
0.609707 -0.030275 -0.531022 0.813698 0.140104 0.564150 1
0.605236 -0.041857 -0.523454 0.825720 -0.034803 0.563006 1
0.600368 -0.050219 -0.519059 0.813933 -0.273732 0.512430 1
0.595348 -0.057222 -0.515962 0.826043 -0.311347 0.469804 1
0.590511 -0.065676 -0.511460 0.904259 -0.068707 0.421419 1
0.586498 -0.081041 -0.500169 0.899608 0.147081 0.411184 1
0.583263 -0.103197 -0.482133 0.882376 0.182089 0.433885 1
0.579296 -0.119112 -0.470292 0.886647 0.061460 0.458345 1
0.574856 -0.130785 -0.462663 0.868934 -0.069897 0.489967 1
0.570095 -0.140017 -0.457383 0.834544 -0.115311 0.538739 1
0.565426 -0.149782 -0.451631 0.826745 -0.008215 0.562516 1
0.560909 -0.161074 -0.444276 0.831356 0.016989 0.555480 1
0.556331 -0.171755 -0.437593 0.847774 -0.045876 0.528370 1
0.551693 -0.182055 -0.431260 0.884069 0.000542 0.467356 1
0.547573 -0.196581 -0.420777 0.896733 0.138953 0.420193 1
0.544201 -0.217623 -0.403840 0.891460 0.187743 0.412374 1
0.540767 -0.237810 -0.387803 0.899400 0.126881 0.418307 1
0.536632 -0.252275 -0.377412 0.897475 -0.000318 0.441064 1
0.532070 -0.263048 -0.370607 0.849061 -0.126487 0.512929 1
0.527218 -0.271471 -0.366151 0.806729 -0.228008 0.545161 1
0.522274 -0.279146 -0.362397 0.828983 -0.239451 0.505421 1
0.517467 -0.287783 -0.357728 0.894300 -0.087307 0.438868 1
0.513149 -0.300737 -0.348771 0.913031 0.105555 0.393996 1
0.509777 -0.321611 -0.332048 0.905115 0.171033 0.389249 1
0.506405 -0.342531 -0.315263 0.897329 0.124284 0.423502 1
0.502285 -0.357103 -0.304734 0.876571 0.016663 0.480985 1
0.497677 -0.367418 -0.298417 0.820643 -0.130558 0.556326 1
0.492702 -0.374865 -0.294862 0.744684 -0.248257 0.619528 1
0.487652 -0.381456 -0.292222 0.778988 -0.157210 0.607011 1
0.482998 -0.391527 -0.286149 0.848992 0.164282 0.502219 1
0.479580 -0.412142 -0.269639 0.861162 0.248980 0.443181 1
0.476726 -0.437243 -0.248765 0.873510 0.200033 0.443810 1
0.472637 -0.452211 -0.237840 0.870098 0.006429 0.492837 1
0.467861 -0.461229 -0.232759 0.801487 -0.184956 0.568691 1
0.462887 -0.468645 -0.229264 0.763743 -0.228776 0.603621 1
0.457943 -0.476107 -0.225785 0.797055 -0.093900 0.596562 1
0.453319 -0.486452 -0.219422 0.823357 0.112660 0.556230 1
0.449230 -0.501223 -0.208696 0.842316 0.139322 0.520667 1
0.445171 -0.516390 -0.197557 0.898622 0.067583 0.433488 1
0.441067 -0.531038 -0.186967 0.941222 0.011593 0.337590 1
0.437145 -0.547213 -0.174867 0.938897 0.023199 0.343415 1
0.433101 -0.562487 -0.163652 0.879444 0.026157 0.475282 1
0.428509 -0.573092 -0.156999 0.755857 -0.054367 0.652475 1
0.423519 -0.580263 -0.153779 0.670508 -0.224748 0.707041 1
0.418453 -0.586733 -0.151261 0.799330 -0.181087 0.572956 1
0.413753 -0.596544 -0.145387 0.919178 0.039962 0.391809 1
0.410183 -0.615664 -0.130387 0.929466 0.122123 0.348109 1
0.406841 -0.636797 -0.113404 0.912503 0.094402 0.398029 1
0.402477 -0.649385 -0.104798 0.860349 -0.035273 0.508483 1
0.397732 -0.658648 -0.099534 0.885716 0.007715 0.464164 1
0.393825 -0.674974 -0.087281 0.925717 0.099167 0.364986 1
0.390423 -0.695635 -0.070756 0.914944 0.112442 0.387600 1
0.720974 0.343473 -0.788026 0.879602 -0.033109 0.474556 1
0.716549 0.331511 -0.780107 0.927013 0.077246 0.366988 1
0.713329 0.309339 -0.762071 0.930862 0.145008 0.335363 1
0.710201 0.286436 -0.743348 0.899685 0.122561 0.418981 1
0.705761 0.274427 -0.735307 0.793843 0.020938 0.607763 1
0.701015 0.265287 -0.730165 0.740801 -0.037264 0.670691 1
0.696132 0.257185 -0.725984 0.759372 -0.148404 0.633507 1
0.691265 0.248838 -0.721604 0.862324 -0.092677 0.497803 1
0.686779 0.237349 -0.714067 0.918022 0.024185 0.395791 1
0.682995 0.219938 -0.700761 0.907890 0.141216 0.394708 1
0.679607 0.199141 -0.684098 0.904510 0.119960 0.409232 1
0.675472 0.184721 -0.673722 0.902003 -0.069634 0.426077 1
0.670727 0.175550 -0.668519 0.870431 -0.232636 0.433855 1
0.665874 0.167219 -0.664155 0.868766 -0.167383 0.466078 1
0.661312 0.156294 -0.657197 0.895941 0.037901 0.442553 1
0.657406 0.139952 -0.644960 0.896828 0.131490 0.422385 1
0.653774 0.121275 -0.630372 0.894569 0.122354 0.429855 1
0.649715 0.106169 -0.619294 0.892185 0.025894 0.450928 1
0.645275 0.094297 -0.611436 0.869072 -0.065174 0.490373 1
0.640590 0.084578 -0.605699 0.833070 -0.108651 0.542392 1
0.635784 0.075651 -0.600694 0.807548 -0.115147 0.578452 1
0.631023 0.066603 -0.595628 0.793750 -0.064113 0.604856 1
0.626323 0.057081 -0.590104 0.829203 0.100177 0.549897 1
0.622387 0.040861 -0.577958 0.861884 0.204357 0.464106 1
0.619060 0.019590 -0.560823 0.896722 0.156561 0.413979 1
0.615291 0.002119 -0.547441 0.900289 0.071395 0.429398 1
0.610882 -0.010027 -0.539308 0.814504 0.112897 0.569068 1
0.606655 -0.023775 -0.529557 0.754853 0.203296 0.623593 1
0.602398 -0.037172 -0.520188 0.779106 0.127419 0.613807 1
0.597774 -0.047426 -0.513902 0.822571 -0.112281 0.557467 1
0.592861 -0.055391 -0.509904 0.854546 -0.276417 0.439711 1
0.588100 -0.064409 -0.504853 0.937555 -0.132158 0.321752 1
0.584087 -0.079744 -0.493623 0.951820 0.020724 0.305957 1
0.580623 -0.100069 -0.477357 0.917594 0.114922 0.380544 1
0.576702 -0.116213 -0.465303 0.903445 0.045027 0.426333 1
0.572262 -0.128145 -0.457353 0.869574 -0.072265 0.488486 1
0.567470 -0.136965 -0.452516 0.812909 -0.142385 0.564718 1
0.562664 -0.145830 -0.447602 0.816623 -0.036486 0.576017 1
0.558132 -0.156755 -0.440675 0.818114 0.039043 0.573729 1
0.553631 -0.168154 -0.433274 0.827398 0.024019 0.561102 1
0.549068 -0.179079 -0.426332 0.861775 0.021269 0.506844 1
0.544918 -0.193346 -0.416093 0.899552 0.111776 0.422269 1
0.541576 -0.214464 -0.399141 0.912857 0.158483 0.376265 1
0.538219 -0.235415 -0.382341 0.911667 0.113603 0.394915 1
0.534054 -0.249575 -0.372239 0.876682 0.002041 0.481067 1
0.529461 -0.260134 -0.365647 0.840028 -0.110088 0.531256 1
0.524639 -0.268786 -0.360963 0.819762 -0.209445 0.533033 1
0.519726 -0.276766 -0.356874 0.834221 -0.205181 0.511836 1
0.514934 -0.285509 -0.352128 0.874437 -0.060163 0.481394 1
0.510570 -0.298021 -0.343629 0.897270 0.104097 0.429033 1
0.507076 -0.317965 -0.327790 0.893952 0.181869 0.409601 1
0.503780 -0.339464 -0.310456 0.897053 0.151487 0.415148 1
0.499706 -0.354479 -0.299455 0.884313 -0.006811 0.466845 1
0.495052 -0.364504 -0.293382 0.822337 -0.193020 0.535261 1
0.490093 -0.371935 -0.289949 0.773004 -0.314412 0.551008 1
0.485058 -0.378710 -0.287126 0.846519 -0.249050 0.470510 1
0.480327 -0.388277 -0.281434 0.898730 0.038763 0.436785 1
0.476726 -0.407091 -0.266740 0.874683 0.218855 0.432472 1
0.473827 -0.431917 -0.246186 0.853889 0.236950 0.463388 1
0.469967 -0.448671 -0.233476 0.846059 0.078882 0.527222 1
0.465221 -0.458040 -0.228074 0.796570 -0.150002 0.585642 1
0.460262 -0.465456 -0.224610 0.766630 -0.238069 0.596323 1
0.455272 -0.472765 -0.221193 0.812459 -0.186649 0.552334 1
0.450603 -0.482576 -0.215364 0.884474 -0.020513 0.466138 1
0.446453 -0.497042 -0.204927 0.892049 0.093533 0.442155 1
0.442608 -0.513887 -0.192155 0.928088 0.060697 0.367381 1
0.438762 -0.530611 -0.179551 0.945340 0.012781 0.325837 1
0.434734 -0.546114 -0.168092 0.922225 0.013486 0.386419 1
0.430401 -0.558916 -0.159288 0.848432 -0.005994 0.529271 1
0.425686 -0.568407 -0.153764 0.753731 -0.065904 0.653871 1
0.420757 -0.576067 -0.150056 0.724185 -0.164457 0.669709 1
0.415798 -0.583651 -0.146363 0.848272 -0.140736 0.510517 1
0.411266 -0.594622 -0.139451 0.918200 0.031162 0.394889 1
0.407635 -0.613375 -0.124803 0.910408 0.144358 0.387708 1
0.404201 -0.633654 -0.108644 0.884665 0.097988 0.455814 1
0.399822 -0.646059 -0.100236 0.852878 -0.052697 0.519445 1
0.395092 -0.655504 -0.094712 0.889980 0.058231 0.452266 1
0.391231 -0.672243 -0.082109 0.898078 0.150003 0.413468 1
0.387752 -0.692217 -0.066270 0.858730 0.130505 0.495532 1
0.385891 -0.706728 -0.063661 0.832529 -0.007198 0.553935 1
0.383144 -0.702562 -0.059907 0.739292 0.026136 0.672878 1
0.718334 0.346540 -0.783174 0.890628 -0.024086 0.454094 1
0.714123 0.332853 -0.773561 0.937122 0.076708 0.340467 1
0.710903 0.310591 -0.755403 0.937911 0.122975 0.324346 1
0.707500 0.290037 -0.739030 0.894216 0.090250 0.438444 1
0.702923 0.279249 -0.732225 0.776751 -0.002972 0.629801 1
0.698147 0.270201 -0.727098 0.726295 -0.004344 0.687370 1
0.693416 0.261091 -0.722032 0.776954 -0.049984 0.627570 1
0.688717 0.251295 -0.716188 0.879411 -0.049193 0.473514 1
0.684337 0.238859 -0.707749 0.926158 0.005976 0.377089 1
0.680477 0.222136 -0.695085 0.932075 0.084186 0.352347 1
0.677028 0.201918 -0.679032 0.917157 0.111049 0.382742 1
0.672939 0.186979 -0.668077 0.900950 -0.003529 0.433908 1
0.668194 0.177748 -0.662812 0.843729 -0.192025 0.501246 1
0.663311 0.169737 -0.658784 0.837356 -0.153914 0.524542 1
0.658687 0.159269 -0.652238 0.887043 0.004441 0.461665 1
0.654781 0.143034 -0.640123 0.904702 0.110793 0.411387 1
0.651104 0.124632 -0.625825 0.895309 0.128149 0.426614 1
0.647091 0.109266 -0.614518 0.880189 0.070183 0.469405 1
0.642681 0.097074 -0.606324 0.860414 -0.053335 0.506797 1
0.637966 0.087599 -0.600816 0.825571 -0.131758 0.548700 1
0.633159 0.078962 -0.596162 0.816381 -0.149123 0.557929 1
0.628338 0.070250 -0.591416 0.809743 -0.128864 0.572460 1
0.623546 0.061369 -0.586488 0.844128 0.051805 0.533632 1
0.619533 0.045820 -0.574952 0.870354 0.200173 0.449904 1
0.616451 0.022490 -0.555833 0.896419 0.174967 0.407209 1
0.612728 0.004545 -0.541947 0.892898 0.041326 0.448358 1
0.608089 -0.005632 -0.535768 0.843792 -0.001393 0.536669 1
0.603649 -0.017565 -0.527833 0.814312 0.125391 0.566721 1
0.599468 -0.031420 -0.518022 0.800503 0.136811 0.583505 1
0.595028 -0.043459 -0.509935 0.821848 0.039675 0.568324 1
0.590389 -0.053621 -0.503801 0.888433 -0.160240 0.430129 1
0.585872 -0.064775 -0.496659 0.952686 -0.088289 0.290853 1
0.581875 -0.080431 -0.485047 0.959684 -0.020080 0.280363 1
0.578106 -0.097887 -0.471666 0.931113 0.060459 0.359686 1
0.574108 -0.113436 -0.460191 0.892647 0.036965 0.449239 1
0.569652 -0.125170 -0.452455 0.834797 -0.070710 0.545999 1
0.564800 -0.133638 -0.447953 0.791603 -0.140808 0.594590 1
0.559948 -0.141970 -0.443513 0.809612 -0.079691 0.581530 1
0.555340 -0.152391 -0.437104 0.825244 0.023205 0.564299 1
0.550869 -0.163973 -0.429536 0.831253 0.032751 0.554929 1
0.546383 -0.175432 -0.422059 0.871687 0.057843 0.486637 1
0.542309 -0.190538 -0.410981 0.916771 0.117678 0.381685 1
0.539043 -0.212328 -0.393342 0.920639 0.143717 0.363001 1
0.535579 -0.232393 -0.377443 0.886518 0.127364 0.444819 1
0.531353 -0.246019 -0.367860 0.838024 0.067440 0.541449 1
0.526790 -0.256807 -0.361024 0.821576 -0.050860 0.567826 1
0.522014 -0.265749 -0.356065 0.795024 -0.137841 0.590708 1
0.517116 -0.273882 -0.351869 0.798748 -0.164863 0.578637 1
0.512310 -0.282503 -0.347230 0.840364 -0.080135 0.536066 1
0.507869 -0.294481 -0.339219 0.890577 0.074598 0.448674 1
0.504329 -0.313860 -0.323960 0.901668 0.169266 0.397924 1
0.501110 -0.336123 -0.305864 0.905120 0.147771 0.398649 1
0.497082 -0.351397 -0.294648 0.875132 0.056464 0.480578 1
0.492458 -0.361544 -0.288530 0.812684 -0.085138 0.576452 1
0.487530 -0.369494 -0.284486 0.805721 -0.261563 0.531411 1
0.482586 -0.376986 -0.280915 0.858195 -0.242764 0.452292 1
0.477871 -0.386553 -0.275315 0.911168 -0.041552 0.409934 1
0.473980 -0.403032 -0.262910 0.903895 0.152026 0.399828 1
0.470852 -0.425982 -0.244157 0.876122 0.214378 0.431802 1
0.467174 -0.444338 -0.229860 0.848591 0.131073 0.512555 1
0.462520 -0.454409 -0.223787 0.793225 -0.088107 0.602521 1
0.457592 -0.462206 -0.219896 0.785367 -0.214891 0.580535 1
0.452724 -0.470263 -0.215837 0.865283 -0.169866 0.471626 1
0.448101 -0.480639 -0.209443 0.920647 -0.070861 0.383911 1
0.443905 -0.494661 -0.199418 0.925132 0.046765 0.376754 1
0.440105 -0.511873 -0.186296 0.925575 0.078351 0.370368 1
0.436306 -0.529100 -0.173143 0.918653 0.064238 0.389808 1
0.432201 -0.543810 -0.162507 0.879130 0.043658 0.474579 1
0.427715 -0.555315 -0.155015 0.805944 -0.013844 0.591831 1
0.422924 -0.564196 -0.150071 0.752167 -0.094606 0.652145 1
0.418041 -0.572313 -0.145890 0.790203 -0.139291 0.596806 1
0.413250 -0.581148 -0.141023 0.881665 -0.110741 0.458697 1
0.408779 -0.592791 -0.133363 0.920742 0.013631 0.389933 1
0.404995 -0.610201 -0.120042 0.902671 0.139159 0.407210 1
0.401470 -0.629763 -0.104615 0.879105 0.136784 0.456578 1
0.397167 -0.642748 -0.095674 0.857759 -0.003525 0.514039 1
0.392483 -0.652620 -0.089769 0.875157 0.022863 0.483299 1
0.388500 -0.668352 -0.078080 0.873951 0.163512 0.457683 1
0.384868 -0.686968 -0.063615 0.803164 0.159330 0.574057 1
0.380245 -0.697313 -0.057222 0.698435 -0.006360 0.715645 1
0.375240 -0.704317 -0.054155 0.721431 -0.067987 0.689141 1
0.720501 0.358549 -0.783357 0.821952 -0.139888 0.552111 1
0.715694 0.349699 -0.778443 0.891164 0.006173 0.453639 1
0.711742 0.333799 -0.766618 0.937168 0.095354 0.335596 1
0.708568 0.311155 -0.748140 0.940344 0.106306 0.323191 1
0.704845 0.293211 -0.734269 0.895703 0.033605 0.443381 1
0.700130 0.283781 -0.728807 0.758821 -0.068129 0.647726 1
0.695293 0.275267 -0.724275 0.734194 -0.001033 0.678938 1
0.690609 0.265532 -0.718522 0.795548 0.013185 0.605747 1
0.686092 0.254209 -0.711167 0.871876 0.026508 0.489009 1
0.681896 0.240400 -0.701432 0.917740 0.055042 0.393350 1
0.678066 0.223387 -0.688478 0.934167 0.078665 0.348058 1
0.674480 0.204237 -0.673432 0.925033 0.079817 0.371408 1
0.670360 0.189787 -0.663056 0.872188 -0.020918 0.488724 1
0.665569 0.180769 -0.657945 0.790502 -0.138420 0.596612 1
0.660656 0.172895 -0.654054 0.820712 -0.093107 0.563705 1
0.656093 0.162153 -0.647294 0.896701 0.050021 0.439802 1
0.652202 0.145597 -0.634812 0.911201 0.099686 0.399718 1
0.648433 0.128035 -0.621324 0.892690 0.117413 0.435107 1
0.644375 0.113005 -0.610337 0.865581 0.085369 0.493438 1
0.640026 0.100447 -0.601823 0.848035 -0.008914 0.529866 1
0.635311 0.090864 -0.596177 0.827133 -0.109259 0.551284 1
0.630504 0.082090 -0.591340 0.827688 -0.156437 0.538944 1
0.625698 0.073317 -0.586549 0.826057 -0.177307 0.534969 1
0.620861 0.064863 -0.582048 0.862089 -0.014264 0.506556 1
0.616726 0.050383 -0.571611 0.877379 0.187413 0.441680 1
0.613735 0.026243 -0.551667 0.885621 0.202776 0.417800 1
0.610134 0.007353 -0.536882 0.897122 0.061135 0.437533 1
0.605480 -0.002687 -0.530824 0.881084 -0.095183 0.463284 1
0.600963 -0.013964 -0.523545 0.893301 -0.035183 0.448080 1
0.596645 -0.026812 -0.514726 0.853712 0.053058 0.518035 1
0.592251 -0.039080 -0.506440 0.837676 0.063646 0.542447 1
0.587841 -0.051256 -0.498262 0.879553 0.004590 0.475779 1
0.583584 -0.064501 -0.489091 0.931095 -0.001233 0.364775 1
0.579525 -0.079729 -0.477861 0.916956 0.060474 0.394378 1
0.575527 -0.095324 -0.466371 0.893214 0.088040 0.440928 1
0.571453 -0.110170 -0.455537 0.862159 0.063838 0.502599 1
0.566936 -0.121431 -0.448274 0.806434 -0.021401 0.590937 1
0.562114 -0.129961 -0.443727 0.784521 -0.123614 0.607657 1
0.557277 -0.138445 -0.439180 0.823749 -0.100191 0.558031 1
0.552624 -0.148607 -0.433000 0.848649 -0.040636 0.527394 1
0.548107 -0.159868 -0.425721 0.855046 0.008111 0.518488 1
0.543712 -0.171953 -0.417649 0.904409 0.042456 0.424548 1
0.539821 -0.188616 -0.405030 0.932645 0.098806 0.347002 1
0.536495 -0.209841 -0.387986 0.906433 0.147198 0.395869 1
0.532772 -0.227709 -0.374192 0.828658 0.170291 0.533222 1
0.528545 -0.241381 -0.364564 0.803821 0.117718 0.583108 1
0.524044 -0.252810 -0.357103 0.794739 0.006840 0.606912 1
0.519283 -0.261873 -0.352021 0.763261 -0.081162 0.640972 1
0.514400 -0.270037 -0.347810 0.773416 -0.102671 0.625529 1
0.509624 -0.279085 -0.342698 0.854982 -0.028242 0.517888 1
0.505275 -0.291674 -0.334153 0.921830 0.068165 0.381554 1
0.501766 -0.311296 -0.318666 0.942602 0.105561 0.316793 1
0.498485 -0.333086 -0.301011 0.937172 0.070337 0.341704 1
0.494335 -0.347353 -0.290788 0.872544 -0.016168 0.488268 1
0.489666 -0.357225 -0.284883 0.747227 -0.023949 0.664138 1
0.484859 -0.366106 -0.279924 0.757767 -0.059000 0.649852 1
0.480022 -0.374620 -0.275376 0.830308 -0.142835 0.538689 1
0.475353 -0.384447 -0.269532 0.892205 -0.007093 0.451575 1
0.471370 -0.400164 -0.257875 0.919075 0.117440 0.376177 1
0.468105 -0.421999 -0.240220 0.913557 0.142840 0.380803 1
0.464412 -0.440111 -0.226197 0.882685 0.084347 0.462334 1
0.459789 -0.450457 -0.219850 0.794784 -0.035347 0.605863 1
0.454967 -0.459047 -0.215211 0.804464 -0.131047 0.579366 1
0.450207 -0.468233 -0.209947 0.882962 -0.122381 0.453211 1
0.445690 -0.479387 -0.202821 0.919318 -0.066199 0.387907 1
0.441463 -0.493120 -0.193101 0.934647 0.001481 0.355573 1
0.437603 -0.509798 -0.180513 0.924442 0.065968 0.375572 1
0.433651 -0.525835 -0.168550 0.879331 0.093497 0.466943 1
0.429439 -0.539675 -0.158677 0.817556 0.095353 0.567900 1
0.424923 -0.550920 -0.151445 0.761040 0.051520 0.646655 1
0.420162 -0.559938 -0.146409 0.758630 -0.055165 0.649182 1
0.415355 -0.568865 -0.141420 0.824633 -0.080071 0.559973 1
0.410732 -0.579073 -0.135194 0.898506 -0.077620 0.432045 1
0.406322 -0.591143 -0.127153 0.922127 -0.007252 0.386819 1
0.402355 -0.606981 -0.115373 0.902129 0.116735 0.415375 1
0.398693 -0.625505 -0.100938 0.870102 0.145648 0.470859 1
0.394466 -0.639208 -0.091249 0.853578 0.036752 0.519668 1
0.389843 -0.649630 -0.084794 0.873392 0.009490 0.486925 1
0.385708 -0.663973 -0.074525 0.858283 0.153655 0.489632 1
0.381878 -0.680925 -0.061662 0.788000 0.167869 0.592347 1
0.377346 -0.691912 -0.054658 0.732689 0.042119 0.679259 1
0.372463 -0.700121 -0.050401 0.776726 -0.028813 0.629180 1
0.370647 -0.714998 -0.047441 0.826552 0.011091 0.562751 1
0.367946 -0.711229 -0.043306 0.824672 0.022568 0.565160 1
0.717785 0.362333 -0.779237 0.818577 -0.099918 0.565640 1
0.713024 0.353132 -0.773973 0.888105 0.060186 0.455684 1
0.709301 0.335264 -0.760224 0.923020 0.135141 0.360237 1
0.706203 0.312010 -0.741120 0.927272 0.121314 0.354189 1
0.702266 0.295927 -0.729112 0.879294 0.002363 0.476273 1
0.697399 0.287748 -0.724900 0.738674 -0.149211 0.657341 1
0.692470 0.280088 -0.721177 0.744437 -0.035143 0.666767 1
0.687755 0.270338 -0.715364 0.800197 0.040422 0.598373 1
0.683361 0.258146 -0.707200 0.859041 0.082138 0.505274 1
0.679287 0.243132 -0.696214 0.900414 0.106197 0.421872 1
0.675625 0.224882 -0.682099 0.919726 0.113288 0.375859 1
0.671962 0.206404 -0.667726 0.903637 0.085555 0.419667 1
0.667629 0.193586 -0.658906 0.814118 0.006908 0.580658 1
0.662822 0.184843 -0.654115 0.738432 -0.066753 0.671016 1
0.657955 0.176573 -0.649781 0.821037 -0.039425 0.569512 1
0.653484 0.164915 -0.642121 0.894266 0.054471 0.444208 1
0.649608 0.148344 -0.629655 0.898987 0.112365 0.423316 1
0.645733 0.131788 -0.617189 0.875749 0.121003 0.467357 1
0.641643 0.116926 -0.606370 0.869012 0.076043 0.488913 1
0.637310 0.104139 -0.597581 0.851351 0.000341 0.524596 1
0.632641 0.094236 -0.591676 0.831160 -0.087566 0.549096 1
0.627895 0.085005 -0.586366 0.835098 -0.137546 0.532627 1
0.623104 0.076002 -0.581315 0.834604 -0.181166 0.520207 1
0.618267 0.067701 -0.577012 0.863392 -0.079760 0.498189 1
0.613979 0.054426 -0.567735 0.884891 0.163560 0.436138 1
0.610927 0.030821 -0.548295 0.880637 0.216075 0.421651 1
0.607494 0.010542 -0.532182 0.896136 0.098462 0.432720 1
0.602978 -0.000780 -0.524827 0.909695 -0.104275 0.401972 1
0.598507 -0.012407 -0.517213 0.921843 -0.111642 0.371134 1
0.594036 -0.023989 -0.509599 0.890851 -0.067167 0.449302 1
0.589519 -0.035204 -0.502397 0.845679 0.030537 0.532817 1
0.585109 -0.047319 -0.494294 0.837596 0.092350 0.538428 1
0.580898 -0.061098 -0.484544 0.861815 0.107545 0.495690 1
0.576870 -0.076418 -0.473283 0.875359 0.118304 0.468776 1
0.572826 -0.091631 -0.462114 0.862749 0.117621 0.491762 1
0.568676 -0.105913 -0.451875 0.817339 0.098464 0.567682 1
0.564144 -0.117083 -0.444688 0.794180 0.010937 0.607585 1
0.559398 -0.126238 -0.439515 0.801530 -0.099307 0.589651 1
0.554638 -0.135424 -0.434266 0.855025 -0.102897 0.508276 1
0.549999 -0.145601 -0.428086 0.876061 -0.076051 0.476166 1
0.545467 -0.156740 -0.420930 0.896968 -0.035755 0.440647 1
0.541195 -0.170000 -0.411714 0.933810 0.026887 0.356757 1
0.537441 -0.187593 -0.398210 0.931299 0.093857 0.351956 1
0.533779 -0.206148 -0.383744 0.873634 0.151673 0.462340 1
0.529766 -0.221499 -0.372468 0.789768 0.197521 0.580734 1
0.525615 -0.235750 -0.362260 0.790909 0.165257 0.589197 1
0.521251 -0.248339 -0.353685 0.789625 0.048357 0.611681 1
0.516491 -0.257494 -0.348451 0.755499 -0.052353 0.653054 1
0.511654 -0.265825 -0.344133 0.780766 -0.069249 0.620974 1
0.507015 -0.276033 -0.337907 0.892420 -0.012254 0.451039 1
0.502910 -0.290773 -0.327195 0.955071 0.038055 0.293924 1
0.499630 -0.312532 -0.309556 0.974681 0.033476 0.221081 1
0.496212 -0.333071 -0.293138 0.965940 -0.047844 0.254305 1
0.491695 -0.344271 -0.285951 0.868620 -0.176704 0.462899 1
0.486767 -0.351961 -0.282212 0.709678 -0.125748 0.693213 1
0.481960 -0.360750 -0.277360 0.702473 0.044450 0.710321 1
0.477291 -0.370577 -0.271501 0.787225 0.013224 0.616524 1
0.472759 -0.381731 -0.264344 0.904926 0.043415 0.423348 1
0.468960 -0.399050 -0.251115 0.947081 0.080347 0.310777 1
0.465679 -0.420580 -0.233781 0.943159 0.074717 0.323833 1
0.461712 -0.436495 -0.221894 0.877198 0.013719 0.479932 1
0.457012 -0.446138 -0.216249 0.779836 -0.050320 0.623959 1
0.452266 -0.455400 -0.210939 0.809860 -0.049689 0.584515 1
0.447658 -0.465761 -0.204560 0.866430 -0.036308 0.497978 1
0.443188 -0.477541 -0.196733 0.905709 -0.004268 0.423878 1
0.439037 -0.491793 -0.186540 0.927327 0.032514 0.372836 1
0.435085 -0.507723 -0.174684 0.910975 0.055184 0.408753 1
0.430874 -0.521563 -0.164903 0.844734 0.089451 0.527658 1
0.426525 -0.534166 -0.156282 0.773762 0.116958 0.622585 1
0.422024 -0.545549 -0.148896 0.742210 0.087139 0.664479 1
0.417339 -0.555178 -0.143266 0.759882 0.015980 0.649864 1
0.412685 -0.565355 -0.137071 0.850638 -0.022419 0.525274 1
0.408214 -0.577074 -0.129304 0.907092 -0.040660 0.418963 1
0.403866 -0.589540 -0.120881 0.920716 -0.012266 0.390039 1
0.399746 -0.604097 -0.110368 0.906524 0.078991 0.414699 1
0.395901 -0.621096 -0.097428 0.874405 0.135373 0.465930 1
0.391720 -0.635195 -0.087358 0.853457 0.074833 0.515763 1
0.387234 -0.646593 -0.079942 0.876476 0.012982 0.481271 1
0.382976 -0.660158 -0.070405 0.885770 0.073564 0.458258 1
0.378948 -0.675356 -0.059297 0.843046 0.121829 0.523861 1
0.374477 -0.686907 -0.051728 0.775876 0.057420 0.628267 1
0.369701 -0.695986 -0.046617 0.786491 -0.006115 0.617571 1
0.365169 -0.706926 -0.039689 0.835026 0.051784 0.547768 1
0.715053 0.366270 -0.775239 0.806596 -0.067992 0.587180 1
0.710308 0.356886 -0.769807 0.878066 0.114239 0.464704 1
0.706676 0.338194 -0.755235 0.902949 0.178958 0.390714 1
0.703655 0.314390 -0.735612 0.897418 0.162923 0.409996 1
0.699611 0.299208 -0.724488 0.837451 0.025445 0.545919 1
0.694668 0.291716 -0.720979 0.701076 -0.150359 0.697055 1
0.689663 0.284544 -0.717683 0.740737 -0.076797 0.667391 1
0.684978 0.274809 -0.711930 0.820108 0.032298 0.571297 1
0.680614 0.262342 -0.703508 0.871179 0.089996 0.482646 1
0.676616 0.246733 -0.691972 0.893188 0.136851 0.428353 1
0.673031 0.227613 -0.676927 0.896232 0.149505 0.417633 1
0.669323 0.209578 -0.663011 0.863270 0.117205 0.490946 1
0.664776 0.198484 -0.655870 0.748402 0.030066 0.662564 1
0.659969 0.189726 -0.651063 0.739968 -0.023675 0.672226 1
0.655254 0.180342 -0.645661 0.842235 0.002413 0.539105 1
0.650921 0.167540 -0.636888 0.894048 0.058579 0.444124 1
0.646938 0.151777 -0.625154 0.887112 0.114804 0.447048 1
0.642971 0.135893 -0.613359 0.878020 0.120478 0.463212 1
0.638942 0.120527 -0.602021 0.879646 0.081979 0.468510 1
0.634640 0.107496 -0.593019 0.865741 0.010041 0.500391 1
0.629986 0.097532 -0.587037 0.831434 -0.072067 0.550929 1
0.625255 0.087996 -0.581468 0.823023 -0.093627 0.560238 1
0.620525 0.078779 -0.576234 0.821156 -0.152687 0.549899 1
0.615658 0.070494 -0.571885 0.850041 -0.055136 0.523822 1
0.611294 0.058027 -0.563462 0.888735 0.141579 0.436011 1
0.608104 0.035597 -0.545182 0.884984 0.212670 0.414216 1
0.604824 0.013838 -0.527543 0.899824 0.126028 0.417652 1
0.600551 0.000624 -0.518357 0.916761 -0.063346 0.394382 1
0.596096 -0.011141 -0.510606 0.911797 -0.111360 0.395254 1
0.591472 -0.021502 -0.504228 0.853158 -0.104058 0.511168 1
0.586818 -0.031466 -0.498246 0.832852 -0.006710 0.553456 1
0.582287 -0.042604 -0.491105 0.831115 0.088592 0.548999 1
0.578075 -0.056429 -0.481294 0.866083 0.119597 0.485383 1
0.574154 -0.072527 -0.469300 0.882461 0.109999 0.457343 1
0.570049 -0.087206 -0.458680 0.847565 0.114101 0.518280 1
0.565777 -0.100618 -0.449220 0.795243 0.123376 0.593605 1
0.561306 -0.112276 -0.441560 0.793291 0.069373 0.604877 1
0.556713 -0.122744 -0.435105 0.839182 -0.053504 0.541212 1
0.552074 -0.132936 -0.428849 0.882202 -0.115402 0.456511 1
0.547451 -0.143282 -0.422502 0.894178 -0.098146 0.436822 1
0.542949 -0.154573 -0.415223 0.915012 -0.031151 0.402223 1
0.538799 -0.168871 -0.404969 0.932531 0.030109 0.359834 1
0.534984 -0.185976 -0.391954 0.914355 0.089083 0.394993 1
0.530971 -0.201586 -0.380372 0.835467 0.146967 0.529523 1
0.526729 -0.215105 -0.370896 0.793480 0.177525 0.582129 1
0.522655 -0.230028 -0.360017 0.827204 0.156181 0.539761 1
0.518429 -0.243792 -0.350251 0.819908 0.066839 0.568580 1
0.513729 -0.253252 -0.344819 0.775912 -0.064876 0.627496 1
0.508892 -0.261812 -0.340181 0.816284 -0.044367 0.575944 1
0.504421 -0.273424 -0.332566 0.908791 0.035733 0.415718 1
0.500683 -0.291155 -0.318925 0.959961 0.067993 0.271757 1
0.497753 -0.315874 -0.298402 0.975997 0.033299 0.215224 1
0.494106 -0.334353 -0.284059 0.955029 -0.109936 0.275379 1
0.489239 -0.342562 -0.279817 0.793833 -0.356197 0.492902 1
0.484020 -0.347948 -0.278306 0.681976 -0.335193 0.650042 1
0.479046 -0.355272 -0.274919 0.752606 -0.024859 0.658002 1
0.474453 -0.365831 -0.268327 0.841059 0.032525 0.539965 1
0.470226 -0.379442 -0.258744 0.929677 0.060744 0.363332 1
0.466747 -0.399416 -0.242921 0.958563 0.066281 0.277064 1
0.463360 -0.420183 -0.226289 0.944665 0.034943 0.326172 1
0.459011 -0.432955 -0.217485 0.842593 -0.040187 0.537050 1
0.454204 -0.441591 -0.212831 0.761461 -0.040970 0.646915 1
0.449489 -0.451098 -0.207338 0.800979 0.004235 0.598678 1
0.444942 -0.462023 -0.200364 0.838490 0.035591 0.543754 1
0.440594 -0.474672 -0.191743 0.885530 0.060866 0.460577 1
0.436550 -0.489992 -0.180421 0.912828 0.064311 0.403249 1
0.432522 -0.505312 -0.169221 0.891462 0.047416 0.450608 1
0.428081 -0.517183 -0.161317 0.821615 0.054863 0.567397 1
0.423595 -0.528612 -0.153901 0.782214 0.095341 0.615672 1
0.419124 -0.540163 -0.146379 0.780916 0.069969 0.620705 1
0.414501 -0.550524 -0.139955 0.819727 0.013830 0.572587 1
0.410000 -0.561907 -0.132569 0.874130 0.004078 0.485675 1
0.405712 -0.574862 -0.123674 0.895621 0.006287 0.444774 1
0.401363 -0.587633 -0.114915 0.902686 0.002040 0.430294 1
0.397167 -0.601503 -0.105043 0.905883 0.052850 0.420218 1
0.393154 -0.617144 -0.093446 0.884667 0.094235 0.456601 1
0.388973 -0.631075 -0.083589 0.870019 0.061723 0.489140 1
0.384609 -0.643602 -0.075074 0.881185 0.026550 0.472025 1
0.380398 -0.657228 -0.065492 0.891782 0.049086 0.449794 1
0.376171 -0.670916 -0.055833 0.848543 0.055931 0.526162 1
0.371654 -0.682314 -0.048356 0.800420 0.009359 0.599366 1
0.366955 -0.691912 -0.042802 0.812902 -0.004585 0.582383 1
0.362423 -0.702913 -0.035783 0.861484 0.052783 0.505035 1
0.361049 -0.721560 -0.029069 0.863752 0.113191 0.491040 1
0.712307 0.370314 -0.771363 0.799137 -0.044858 0.599472 1
0.707592 0.360746 -0.765794 0.862697 0.094936 0.496730 1
0.703930 0.342268 -0.751374 0.883395 0.200828 0.423416 1
0.700893 0.318586 -0.731904 0.872436 0.192594 0.449181 1
0.696819 0.303556 -0.720903 0.789760 0.045108 0.611755 1
0.691860 0.296141 -0.717439 0.680084 -0.127401 0.721980 1
0.686886 0.288832 -0.714067 0.759908 -0.062683 0.647001 1
0.682247 0.278639 -0.707856 0.853716 0.015621 0.520505 1
0.677944 0.265654 -0.698869 0.897216 0.051103 0.438626 1
0.673916 0.250303 -0.687623 0.890869 0.133242 0.434280 1
0.670269 0.231688 -0.673051 0.875536 0.170673 0.452004 1
0.666500 0.214094 -0.659547 0.840726 0.124573 0.526936 1
0.661892 0.203733 -0.653184 0.763810 0.023511 0.645013 1
0.657116 0.194609 -0.647996 0.776858 -0.009568 0.629603 1
0.652553 0.183912 -0.641313 0.866722 0.017969 0.498467 1
0.648311 0.170393 -0.631822 0.892082 0.061644 0.447649 1
0.644268 0.155333 -0.620851 0.890688 0.096453 0.444266 1
0.640270 0.139601 -0.609178 0.892889 0.104262 0.438040 1
0.636333 0.123579 -0.597245 0.891992 0.068884 0.446773 1
0.631954 0.110914 -0.588487 0.848349 -0.007752 0.529381 1
0.627285 0.101164 -0.582749 0.800072 -0.045605 0.598168 1
0.622570 0.091642 -0.577241 0.784342 -0.039006 0.619100 1
0.617824 0.082396 -0.571946 0.773731 -0.069811 0.629657 1
0.612987 0.073866 -0.567353 0.818972 -0.009508 0.573755 1
0.608593 0.061613 -0.559114 0.874308 0.121219 0.469991 1
0.605312 0.039930 -0.541566 0.893695 0.201114 0.401077 1
0.602215 0.016890 -0.522737 0.906381 0.138704 0.399042 1
0.598095 0.002104 -0.511964 0.917007 -0.036137 0.397231 1
0.593593 -0.009142 -0.504731 0.882707 -0.118425 0.454757 1
0.588833 -0.018282 -0.499528 0.814175 -0.130419 0.565783 1
0.584057 -0.027285 -0.494523 0.813241 -0.029218 0.581192 1
0.579509 -0.038271 -0.487474 0.858999 0.053185 0.509208 1
0.575420 -0.053179 -0.476640 0.910851 0.073651 0.406111 1
0.571514 -0.069551 -0.464326 0.901167 0.064173 0.428697 1
0.567241 -0.082781 -0.455125 0.839412 0.077956 0.537876 1
0.562862 -0.095186 -0.446733 0.800632 0.106614 0.589595 1
0.558452 -0.107256 -0.438661 0.794825 0.100947 0.598383 1
0.553997 -0.119082 -0.430802 0.834742 0.043342 0.548933 1
0.549526 -0.130571 -0.423371 0.872704 -0.056791 0.484935 1
0.544948 -0.141146 -0.416780 0.889014 -0.086053 0.449721 1
0.540416 -0.152361 -0.409547 0.899456 0.003105 0.437000 1
0.536266 -0.166704 -0.399217 0.906165 0.069124 0.417237 1
0.532314 -0.182680 -0.387315 0.866809 0.118892 0.484258 1
0.528133 -0.196627 -0.377427 0.810812 0.142310 0.567742 1
0.523845 -0.209810 -0.368257 0.848690 0.144317 0.508820 1
0.519909 -0.225969 -0.356187 0.889219 0.084245 0.449659 1
0.515743 -0.240160 -0.346025 0.855906 0.011205 0.517010 1
0.510982 -0.249270 -0.340852 0.780509 -0.106806 0.615954 1
0.506145 -0.257769 -0.336320 0.824496 0.005041 0.565845 1
0.501796 -0.270342 -0.327775 0.895472 0.105551 0.432422 1
0.498394 -0.291063 -0.311158 0.936287 0.142030 0.321237 1
0.495662 -0.317247 -0.289201 0.940170 0.113531 0.321233 1
0.491710 -0.333239 -0.277314 0.875971 -0.060583 0.478544 1
0.486690 -0.340197 -0.274278 0.664789 -0.415800 0.620618 1
0.481396 -0.344912 -0.273454 0.661019 -0.409690 0.628655 1
0.476345 -0.351503 -0.270768 0.805645 -0.141413 0.575272 1
0.471721 -0.361910 -0.264329 0.883246 0.042739 0.466959 1
0.467800 -0.377993 -0.252351 0.934710 0.090577 0.343675 1
0.464535 -0.399950 -0.234544 0.949184 0.089364 0.301767 1
0.460949 -0.418901 -0.219697 0.919339 0.027877 0.392478 1
0.456295 -0.429049 -0.213533 0.790366 -0.080290 0.607351 1
0.451412 -0.437182 -0.209336 0.759845 -0.061017 0.647235 1
0.446697 -0.446627 -0.203843 0.792533 0.011539 0.609720 1
0.442150 -0.457567 -0.196931 0.830421 0.063964 0.553453 1
0.437893 -0.470995 -0.187532 0.878881 0.097916 0.466885 1
0.433986 -0.487398 -0.175172 0.899112 0.090861 0.428185 1
0.429882 -0.502169 -0.164460 0.872654 0.043962 0.486357 1
0.425335 -0.513079 -0.157518 0.833629 0.002331 0.552320 1
0.420772 -0.524019 -0.150544 0.829965 0.031988 0.556898 1
0.416347 -0.535799 -0.142808 0.843177 0.013224 0.537473 1
0.411800 -0.546831 -0.135759 0.866398 -0.011997 0.499209 1
0.407375 -0.558794 -0.127824 0.881574 0.016699 0.471751 1
0.403072 -0.571856 -0.118776 0.873286 0.036021 0.485874 1
0.398739 -0.584581 -0.110032 0.867101 0.066925 0.493616 1
0.394573 -0.598742 -0.099916 0.888396 0.091362 0.449896 1
0.390545 -0.614168 -0.088563 0.902278 0.050970 0.428130 1
0.386318 -0.627764 -0.078996 0.895318 0.018880 0.445028 1
0.382015 -0.640856 -0.069871 0.904336 0.011426 0.426669 1
0.377804 -0.654619 -0.060151 0.894775 0.022479 0.445952 1
0.373455 -0.667147 -0.051683 0.848969 0.019521 0.528082 1
0.368877 -0.677996 -0.044786 0.804527 0.000272 0.593916 1
0.364223 -0.688036 -0.038758 0.832545 -0.001045 0.553956 1
0.359768 -0.699663 -0.031129 0.889367 0.051551 0.454279 1
0.358394 -0.718264 -0.024461 0.899145 0.087352 0.428844 1
0.355800 -0.715502 -0.019334 0.908268 0.080111 0.410647 1
0.709560 0.374357 -0.767503 0.804239 -0.034052 0.593330 1
0.704876 0.364515 -0.761582 0.859654 0.071831 0.505802 1
0.701168 0.346540 -0.747758 0.886186 0.188665 0.423179 1
0.698070 0.323256 -0.728624 0.876048 0.183486 0.445951 1
0.693950 0.308561 -0.717958 0.804815 0.079905 0.588122 1
0.689052 0.300825 -0.714204 0.686111 -0.089689 0.721947 1
0.684124 0.293013 -0.710343 0.794347 -0.046910 0.605650 1
0.679607 0.281858 -0.703172 0.882498 0.013759 0.470115 1
0.675396 0.268003 -0.693315 0.911161 0.031131 0.410872 1
0.671291 0.253279 -0.682618 0.906871 0.087893 0.412139 1
0.667537 0.235701 -0.669191 0.889645 0.141462 0.434190 1
0.663707 0.218519 -0.656053 0.853201 0.077569 0.515782 1
0.659099 0.208158 -0.649675 0.815452 -0.039403 0.577482 1
0.654400 0.198561 -0.644059 0.838140 -0.035942 0.544269 1
0.649914 0.187101 -0.636613 0.874921 0.027673 0.483475 1
0.645687 0.173552 -0.627137 0.882829 0.075222 0.463633 1
0.641598 0.158583 -0.616151 0.896569 0.093310 0.432964 1
0.637676 0.142302 -0.603959 0.909340 0.080492 0.408193 1
0.633693 0.126539 -0.592225 0.888795 0.050979 0.455460 1
0.629238 0.114897 -0.584581 0.813794 -0.013846 0.580989 1
0.624492 0.105574 -0.579240 0.773331 -0.025637 0.633483 1
0.619762 0.096205 -0.573838 0.763457 -0.028069 0.645248 1
0.615001 0.087095 -0.568681 0.735808 -0.027028 0.676651 1
0.610180 0.078382 -0.563935 0.792265 0.037758 0.609008 1
0.605861 0.065641 -0.555223 0.872454 0.163658 0.460479 1
0.602627 0.043516 -0.537263 0.897414 0.201436 0.392519 1
0.599590 0.019743 -0.517640 0.908112 0.149146 0.391264 1
0.595623 0.003935 -0.505891 0.909791 -0.009780 0.414952 1
0.591030 -0.006609 -0.499360 0.858210 -0.139870 0.493874 1
0.586147 -0.014788 -0.495118 0.809433 -0.187551 0.556455 1
0.581325 -0.023302 -0.490571 0.843108 -0.076417 0.532287 1
0.576885 -0.035219 -0.482652 0.914014 0.017853 0.405290 1
0.572994 -0.051638 -0.470307 0.930967 0.041990 0.362680 1
0.568950 -0.066927 -0.459092 0.890839 0.035867 0.452901 1
0.564495 -0.078768 -0.451219 0.846575 0.033418 0.531219 1
0.560055 -0.090578 -0.443391 0.837521 0.050878 0.544031 1
0.555645 -0.102587 -0.435441 0.826701 0.070788 0.558171 1
0.551250 -0.114931 -0.427079 0.840013 0.075098 0.537344 1
0.546886 -0.127474 -0.418550 0.858521 0.013088 0.512611 1
0.542370 -0.138567 -0.411470 0.874484 -0.050147 0.482456 1
0.537838 -0.149691 -0.404344 0.888228 -0.004243 0.459384 1
0.533626 -0.163469 -0.394593 0.882367 0.083868 0.463028 1
0.529522 -0.178133 -0.383989 0.827955 0.125253 0.546627 1
0.525219 -0.191195 -0.374925 0.801392 0.154091 0.577950 1
0.521038 -0.205294 -0.364839 0.843623 0.177951 0.506590 1
0.517330 -0.223299 -0.350923 0.881070 0.115992 0.458543 1
0.513134 -0.237200 -0.341066 0.852897 -0.025857 0.521439 1
0.508281 -0.245577 -0.336671 0.766590 -0.143181 0.625971 1
0.503368 -0.253466 -0.332704 0.817828 0.004668 0.575444 1
0.499019 -0.266054 -0.324159 0.877293 0.177168 0.446059 1
0.495815 -0.288424 -0.305909 0.894693 0.215945 0.391015 1
0.492992 -0.314028 -0.284501 0.859543 0.213212 0.464464 1
0.488964 -0.329241 -0.273393 0.775171 0.062637 0.628639 1
0.483974 -0.336519 -0.270021 0.652940 -0.243202 0.717302 1
0.478756 -0.341738 -0.268724 0.667201 -0.359935 0.652143 1
0.473720 -0.348604 -0.265779 0.802724 -0.163272 0.573565 1
0.469082 -0.358599 -0.259797 0.882551 0.070588 0.464888 1
0.465282 -0.376040 -0.246415 0.913847 0.155806 0.374977 1
0.462154 -0.399004 -0.227586 0.919332 0.126538 0.372582 1
0.458355 -0.416185 -0.214509 0.877558 0.014851 0.479241 1
0.453548 -0.424974 -0.209687 0.772186 -0.129080 0.622147 1
0.448635 -0.432970 -0.205598 0.776993 -0.080998 0.624277 1
0.443920 -0.442385 -0.200181 0.802468 -0.003678 0.596684 1
0.439358 -0.453249 -0.193284 0.848622 0.057731 0.525840 1
0.435177 -0.467348 -0.183213 0.891684 0.098048 0.441912 1
0.431362 -0.484331 -0.170365 0.898691 0.089959 0.429257 1
0.427196 -0.498598 -0.160081 0.870213 0.029367 0.491799 1
0.422619 -0.509386 -0.153276 0.854113 -0.023118 0.519574 1
0.418102 -0.520510 -0.146196 0.874148 -0.016824 0.485369 1
0.413677 -0.532503 -0.138169 0.877944 -0.024933 0.478113 1
0.409191 -0.543978 -0.130693 0.886302 -0.040127 0.461365 1
0.404735 -0.555696 -0.122987 0.874341 -0.000729 0.485312 1
0.400341 -0.567812 -0.114900 0.827872 0.063364 0.557327 1
0.395931 -0.580004 -0.106691 0.830873 0.127565 0.541642 1
0.391857 -0.595034 -0.095674 0.868380 0.145835 0.473970 1
0.387981 -0.611681 -0.083131 0.905203 0.063892 0.420148 1
0.383770 -0.625414 -0.073411 0.910198 0.000062 0.414174 1
0.379482 -0.638506 -0.064424 0.903392 0.004629 0.428792 1
0.375210 -0.651873 -0.055040 0.878319 0.016972 0.477775 1
0.370739 -0.663378 -0.047532 0.828463 0.008133 0.559985 1
0.366100 -0.673632 -0.041246 0.806909 0.001474 0.590673 1
0.361507 -0.684221 -0.034608 0.856233 0.008684 0.516516 1
0.357174 -0.696886 -0.026002 0.905119 0.046900 0.422563 1
0.353237 -0.712938 -0.014024 0.911189 0.062302 0.407251 1
0.706783 0.378523 -0.763719 0.810137 -0.015988 0.586023 1
0.702160 0.368284 -0.757463 0.868784 0.094814 0.486030 1
0.698498 0.349974 -0.743318 0.898488 0.176076 0.402140 1
0.695354 0.327040 -0.724488 0.890714 0.155803 0.427029 1
0.691128 0.313429 -0.714921 0.800889 0.022612 0.598386 1
0.686229 0.305464 -0.710893 0.731870 -0.090484 0.675411 1
0.681392 0.296934 -0.706346 0.834930 -0.034623 0.549266 1
0.676998 0.284666 -0.698091 0.901977 0.021615 0.431244 1
0.672893 0.270079 -0.687593 0.911302 0.032360 0.410466 1
0.668712 0.255934 -0.677430 0.900110 0.081205 0.428028 1
0.664898 0.238813 -0.664384 0.900906 0.118144 0.417626 1
0.661068 0.221846 -0.651506 0.885225 0.052989 0.462135 1
0.656444 0.211515 -0.645173 0.836538 -0.070954 0.543295 1
0.651729 0.201902 -0.639527 0.841663 -0.032715 0.539012 1
0.647259 0.190336 -0.631944 0.861940 0.036766 0.505676 1
0.642986 0.177122 -0.622773 0.874068 0.091120 0.477181 1
0.638958 0.161818 -0.611512 0.881650 0.131540 0.453201 1
0.635113 0.144865 -0.598588 0.895983 0.100533 0.432559 1
0.631069 0.129683 -0.587510 0.869671 0.026122 0.492941 1
0.626491 0.118956 -0.580751 0.826080 -0.049236 0.561398 1
0.621731 0.109755 -0.575517 0.820152 -0.090131 0.565001 1
0.617000 0.100431 -0.570161 0.811369 -0.123241 0.571395 1
0.612194 0.091688 -0.565370 0.776326 -0.096182 0.622950 1
0.607342 0.083189 -0.560823 0.821892 0.032490 0.568716 1
0.603084 0.069944 -0.551606 0.886612 0.176498 0.427513 1
0.599941 0.047026 -0.532869 0.895971 0.207096 0.392870 1
0.596966 0.022718 -0.512757 0.900005 0.176340 0.398616 1
0.593059 0.006254 -0.500306 0.897835 0.005063 0.440304 1
0.588466 -0.004091 -0.494004 0.847707 -0.177999 0.499710 1
0.583553 -0.011934 -0.490098 0.835212 -0.223393 0.502511 1
0.578731 -0.020617 -0.485322 0.900646 -0.118400 0.418113 1
0.574413 -0.033587 -0.476411 0.937028 -0.006064 0.349202 1
0.570522 -0.050097 -0.463945 0.919017 0.035328 0.392633 1
0.566250 -0.063387 -0.454682 0.856437 0.037189 0.514911 1
0.561779 -0.074877 -0.447190 0.843257 0.037950 0.536170 1
0.557369 -0.086977 -0.439119 0.861071 0.016552 0.508215 1
0.552898 -0.098604 -0.431489 0.851227 0.024369 0.524232 1
0.548473 -0.110567 -0.423555 0.848578 0.066067 0.524929 1
0.544170 -0.123644 -0.414445 0.857392 0.046321 0.512575 1
0.539745 -0.135500 -0.406648 0.868249 -0.013940 0.495932 1
0.535228 -0.146853 -0.399263 0.883980 -0.005261 0.467495 1
0.530941 -0.160036 -0.390077 0.876965 0.061921 0.476548 1
0.526684 -0.173388 -0.380769 0.834970 0.075287 0.545121 1
0.522274 -0.185549 -0.372621 0.797468 0.153509 0.583507 1
0.518154 -0.200014 -0.362229 0.816242 0.218290 0.534881 1
0.514583 -0.219194 -0.347154 0.826375 0.211167 0.522028 1
0.510402 -0.233400 -0.336976 0.819332 0.054007 0.570770 1
0.505565 -0.241823 -0.332505 0.770383 -0.134243 0.623289 1
0.500652 -0.249712 -0.328538 0.833773 -0.073801 0.547153 1
0.496242 -0.261843 -0.320405 0.870722 0.144866 0.469954 1
0.492946 -0.283190 -0.303224 0.856112 0.255044 0.449471 1
0.490001 -0.307680 -0.282975 0.817669 0.264810 0.511168 1
0.486004 -0.323305 -0.271379 0.762493 0.148814 0.629649 1
0.481151 -0.331835 -0.266786 0.671172 -0.109064 0.733234 1
0.476070 -0.338198 -0.264375 0.700727 -0.255791 0.665997 1
0.471081 -0.345491 -0.260987 0.777784 -0.147633 0.610948 1
0.466335 -0.354647 -0.255815 0.835419 0.102782 0.539918 1
0.462551 -0.371996 -0.242540 0.860346 0.223831 0.457935 1
0.459484 -0.395632 -0.223054 0.881186 0.200240 0.428271 1
0.455715 -0.413042 -0.209764 0.874790 0.013599 0.484311 1
0.450863 -0.421404 -0.205323 0.791944 -0.179366 0.583655 1
0.445934 -0.429216 -0.201463 0.789591 -0.148189 0.595471 1
0.441189 -0.438372 -0.196305 0.822402 -0.029552 0.568139 1
0.436641 -0.449556 -0.189042 0.880118 0.038463 0.473194 1
0.432598 -0.464556 -0.178163 0.912996 0.076872 0.400662 1
0.428737 -0.481447 -0.165300 0.902284 0.070287 0.425374 1
0.424541 -0.495256 -0.155549 0.879160 0.008325 0.476455 1
