-0.653681 0.009708 1.655960 0.654668 0.396188 0.643774 1
-0.650995 0.014072 1.649933 0.710183 0.441096 0.548702 1
-0.645533 0.022442 1.633011 0.695320 0.483742 0.531530 1
-0.639948 0.031490 1.618927 0.611973 0.550981 0.567370 1
-0.637079 0.035847 1.611481 0.622551 0.529680 0.576081 1
-0.634180 0.040226 1.604462 0.621581 0.492980 0.608776 1
-0.631373 0.044689 1.598084 0.596162 0.540179 0.593968 1
-0.625818 0.053333 1.583222 0.631733 0.525996 0.569422 1
-0.623072 0.057880 1.576782 0.572589 0.452401 0.683722 1
0.169409 0.104542 -0.992325 -0.309437 -0.944185 0.112972 3
0.179418 0.100086 -1.012634 -0.263227 -0.959810 0.097350 3
0.164373 0.110676 -0.955490 -0.514152 -0.851917 0.099423 3
0.171362 0.106609 -0.963333 -0.276974 -0.953467 0.119109 3
-0.611902 0.076519 1.554215 0.650205 0.456695 0.607177 1
-0.609125 0.081104 1.548233 0.649990 0.381794 0.657074 1
-0.606348 0.085857 1.543198 0.615394 0.323255 0.718886 1
-0.600733 0.095600 1.534531 0.594693 0.347117 0.725156 1
0.120855 0.227077 -0.360275 -0.172647 -0.821801 0.542987 3
0.119177 0.221851 -0.369247 -0.217830 -0.838441 0.499567 3
-0.595148 0.105121 1.524765 0.728473 0.285274 0.622853 2
-0.592402 0.109798 1.519318 0.756667 0.613769 0.225262 2
-0.589930 0.110866 1.493240 0.717622 0.695981 0.025065 2
-0.587702 0.108898 1.449890 0.704850 0.708302 0.038663 2
-0.585200 0.110439 1.426529 0.700690 0.665055 0.258331 2
-0.582484 0.114727 1.418869 0.677931 0.566326 0.468705 2
-0.579798 0.118503 1.408310 0.762671 0.603964 0.231432 2
-0.574702 0.122867 1.368942 0.796832 0.572443 0.193305 2
-0.572016 0.126301 1.356506 0.814875 0.449148 0.366394 2
-0.558527 0.132946 1.314560 0.886602 0.378179 0.266304 2
-0.561304 0.140583 1.309525 0.856949 0.487220 0.168091 2
-0.555903 0.135845 1.298935 0.791710 0.576768 0.201331 2
-0.553339 0.138408 1.281433 0.760714 0.606787 0.230487 2
-0.553492 0.148479 1.258240 0.764723 0.595449 0.246250 2
-0.550928 0.150806 1.239365 0.883217 0.437121 0.169864 2
-0.545771 0.155521 1.202072 0.902908 0.401936 0.152328 2
-0.543238 0.157223 1.179688 0.861779 0.488232 0.137721 2
-0.540735 0.159153 1.158539 0.873793 0.460622 0.155926 2
-0.538172 0.161365 1.139008 0.882179 0.443275 0.158958 2
-0.535639 0.163273 1.117798 0.877946 0.458836 0.136678 2
-0.533106 0.164913 1.095047 0.864660 0.484322 0.133398 2
-0.530573 0.166881 1.074158 0.891072 0.422529 0.165709 2
-0.527979 0.169506 1.056992 0.890982 0.403172 0.208814 2
-0.525355 0.172504 1.041962 0.909160 0.325290 0.260027 2
-0.522639 0.176288 1.031479 0.907653 0.211586 0.362488 2
-0.519892 0.180729 1.024719 0.892149 0.162093 0.421658 2
-0.517206 0.184856 1.016113 0.901400 0.329517 0.280884 2
-0.514551 0.187588 0.999649 0.876266 0.442151 0.191467 2
-0.511988 0.189937 0.980911 0.921571 0.321427 0.217699 2
-0.506678 0.196422 0.953735 0.943297 0.248803 0.219746 2
-0.498835 0.205242 0.907684 0.949298 0.186699 0.252938 2
-0.501490 0.201992 0.921250 0.938454 0.255738 0.232170 2
-0.496149 0.208797 0.895874 0.954434 0.083799 0.286415 2
-0.490748 0.216724 0.876877 0.959236 0.049432 0.278251 2
0.100988 0.193966 -0.564621 -0.308922 -0.945791 0.100234 3
0.107794 0.187595 -0.608810 -0.268564 -0.952274 0.145077 3
-0.485468 0.210445 0.857483 0.965565 0.164325 0.201696 2
-0.482783 0.226589 0.836823 0.952987 0.004109 0.302982 2
-0.474726 0.225651 0.815811 0.936337 -0.099441 0.336726 2
-0.477259 0.235363 0.822739 0.942710 0.129181 0.307589 2
-0.469294 0.233364 0.795624 0.911675 0.328483 0.246876 2
-0.472010 0.241390 0.792938 0.875323 0.391915 0.283218 2
-0.469355 0.244701 0.779694 0.841417 0.431013 0.325953 2
-0.458643 0.259273 0.734360 0.916473 0.265106 0.299661 2
-0.455927 0.263027 0.723740 0.935190 0.135645 0.327140 2
-0.447779 0.275272 0.697266 0.943471 0.063595 0.325298 2
0.044592 0.207027 -0.527069 -0.287351 -0.942896 0.168454 3
0.049780 0.200893 -0.564590 -0.381593 -0.920708 0.081749 3
0.052160 0.202900 -0.537262 -0.280933 -0.946982 0.155891 3
-0.445032 0.279735 0.690659 0.943543 -0.053772 0.326856 2
-0.442255 0.284237 0.684265 0.955624 -0.052520 0.289871 2
-0.439570 0.287952 0.673370 0.974034 -0.016742 0.225781 2
-0.436915 0.291271 0.660217 0.973240 -0.006189 0.229707 2
-0.434199 0.295063 0.649719 0.958187 -0.033577 0.284167 2
-0.426203 0.293384 0.624466 0.941986 -0.038313 0.333458 2
0.052496 0.208294 -0.522674 -0.067377 -0.901028 0.428496 3
-0.417963 0.306309 0.601898 0.940791 -0.040485 0.336561 2
0.008093 0.401157 0.089020 -0.397916 -0.853288 0.336989 2
0.001013 0.399776 0.081131 -0.181824 -0.884631 0.429382 2
-0.417719 0.321270 0.606690 0.919630 -0.185277 0.346341 2
-0.415247 0.310772 0.595276 0.928475 -0.114327 0.353359 2
-0.414942 0.326206 0.602722 0.901138 -0.251185 0.353351 2
-0.412134 0.331333 0.599899 0.908241 -0.284398 0.306947 2
-0.400934 0.351353 0.585800 0.904683 -0.296468 0.306032 2
-0.398127 0.355991 0.580261 0.926525 -0.134233 0.351472 2
-0.390070 0.355213 0.560074 0.882546 -0.228881 0.410762 2
-0.392603 0.365322 0.569306 0.881716 -0.199775 0.427396 2
-0.389765 0.370510 0.566803 0.816361 -0.379420 0.435426 2
-0.386896 0.376362 0.568100 0.734168 -0.533908 0.419452 2
-0.381098 0.388805 0.574921 0.764074 -0.540562 0.352112 2
-0.375300 0.401295 0.582047 0.795464 -0.526334 0.300351 2
-0.369623 0.412098 0.579529 0.954814 -0.160310 0.250263 2
-0.366907 0.416248 0.571076 0.958300 -0.136294 0.251169 2
-0.364161 0.420086 0.561051 0.927374 -0.268800 0.260239 2
-0.361231 0.425068 0.557724 0.829742 -0.478713 0.286990 2
-0.358179 0.431362 0.561905 0.744715 -0.600949 0.290274 2
-0.352534 0.445637 0.578323 0.739723 -0.595487 0.313375 2
-0.349634 0.451565 0.580155 0.759788 -0.527098 0.380643 2
-0.343836 0.463642 0.584946 0.717247 -0.540738 0.439499 2
-0.340937 0.469913 0.588730 0.636918 -0.624850 0.451551 2
-0.332575 0.470760 0.578674 0.615087 -0.668433 0.418169 2
-0.334864 0.483379 0.602127 0.542062 -0.730653 0.415109 2
-0.331873 0.490795 0.612595 0.477134 -0.796629 0.371113 2
-0.328364 0.497730 0.624024 0.594228 -0.726198 0.345730 2
-0.325037 0.504680 0.632904 0.620539 -0.680160 0.390274 2
-0.321894 0.511448 0.638062 0.695654 -0.566562 0.441670 2
-0.198481 0.585216 0.679688 0.429781 -0.466286 0.773218 2
0.130224 0.381489 0.239929 -0.675822 -0.721770 0.149376 2
0.125280 0.385280 0.239288 -0.584623 -0.779423 0.225200 2
0.129980 0.376079 0.224838 -0.582209 -0.746955 0.321078 2
0.124090 0.374538 0.212143 -0.627519 -0.739937 0.242308 2
-0.164881 0.574016 0.638703 0.247596 -0.890561 0.381572 2
-0.176630 0.573269 0.650131 0.497771 -0.775867 0.387627 2
-0.164271 0.568477 0.620102 0.339938 -0.885424 0.316964 2
0.143530 0.370304 0.459656 -0.767440 -0.640561 0.026780 2
0.134741 0.181614 -0.545730 -0.106427 -0.891416 0.440512 3
-0.011164 0.469929 0.302704 -0.398907 -0.863687 0.308087 2
-0.042292 0.221874 -0.400574 0.574281 -0.657232 0.488106 3
-0.261256 0.585003 0.735626 0.540423 -0.568128 0.620624 2
-0.265986 0.579586 0.733750 0.480650 -0.611604 0.628424 2
-0.283686 0.545681 0.636749 0.584464 -0.640058 0.498726 2
-0.296564 0.545093 0.652725 0.565206 -0.699841 0.436766 2
0.087835 0.230770 -0.377197 -0.173635 -0.812324 0.556760 3
0.086309 0.225513 -0.386871 -0.252362 -0.860454 0.442643 3
0.052435 0.270595 -0.309189 -0.077610 -0.969147 0.233947 3
0.053167 0.265041 -0.328277 0.011069 -0.938676 0.344622 3
0.085363 0.220196 -0.398926 -0.413800 -0.855503 0.311263 3
0.086645 0.214580 -0.420303 -0.504433 -0.855066 0.120044 3
0.091589 0.210789 -0.419617 -0.568451 -0.813903 0.120106 3
-0.745936 -0.168369 1.860794 0.695325 0.402286 0.595558 1
-0.742823 -0.151417 1.846298 0.589167 0.498838 0.635643 1
-0.734736 -0.150227 1.838074 0.588706 0.466138 0.660409 1
-0.737513 -0.142361 1.834488 0.536697 0.477585 0.695607 1
-0.726740 -0.123844 1.812286 0.715374 0.425842 0.553985 1
-0.715418 -0.118794 1.792893 0.649928 0.530211 0.544491 1
-0.715266 -0.106610 1.780960 0.598364 0.535958 0.595575 1
-0.712427 -0.102001 1.774796 0.561471 0.487694 0.668509 1
-0.706599 -0.092640 1.764313 0.430899 0.485250 0.760827 1
-0.687678 -0.097012 1.756180 0.520688 0.488300 0.700319 1
-0.695185 -0.073223 1.744217 0.425510 0.517900 0.742105 1
-0.678675 -0.044926 1.712418 0.714355 0.254261 0.651957 1
-0.678858 -0.058224 1.717209 0.728597 0.285406 0.622647 1
-0.670710 -0.030804 1.698151 0.731952 0.242428 0.636769 1
-0.653803 -0.003033 1.663147 0.707356 0.356938 0.610118 1
-0.648157 0.006161 1.651718 0.716554 0.347689 0.604700 1
-0.639857 0.006786 1.640473 0.711215 0.457552 0.533685 1
-0.634638 0.027965 1.615418 0.695343 0.456896 0.554748 1
-0.631678 0.032368 1.607758 0.696896 0.441286 0.565334 1
-0.623286 0.033260 1.597290 0.664282 0.416830 0.620469 1
-0.625910 0.041347 1.595139 0.655391 0.420188 0.627618 1
-0.612147 0.038975 1.582291 0.620122 0.484306 0.617168 1
-0.620325 0.050007 1.580475 0.585059 0.519537 0.622726 1
-0.617579 0.054607 1.574417 0.540633 0.500761 0.675984 1
-0.609278 0.056110 1.567291 0.540270 0.480639 0.690720 1
-0.603785 0.052814 1.564880 0.624612 0.498011 0.601536 1
-0.600855 0.082378 1.539810 0.634930 0.306885 0.709003 1
-0.598047 0.087246 1.535431 0.699213 0.274718 0.660024 1
-0.589747 0.101291 1.519211 0.781801 0.203112 0.589519 2
-0.584589 0.105831 1.480896 0.675586 0.736609 0.031490 2
-0.582331 0.104305 1.440125 0.659907 0.748479 0.065594 2
-0.579737 0.106983 1.423233 0.672527 0.648637 0.356339 2
-0.576990 0.111149 1.414932 0.755901 0.540326 0.369679 2
-0.574366 0.114368 1.401154 0.786792 0.588308 0.186687 2
-0.571833 0.116245 1.379730 0.798143 0.581633 0.157073 2
-0.569269 0.118557 1.360825 0.834953 0.492680 0.245194 2
-0.566614 0.122059 1.348679 0.872512 0.362474 0.327620 2
-0.561213 0.117260 1.337738 0.891471 0.325550 0.315115 2
-0.558527 0.120899 1.326416 0.895332 0.309737 0.320068 2
-0.550684 0.141483 1.266846 0.786081 0.571145 0.236367 2
-0.548090 0.144161 1.250076 0.780716 0.612530 0.123654 2
-0.545588 0.145634 1.226303 0.896236 0.421337 0.138699 2
-0.540522 0.149601 1.184647 0.922400 0.353819 0.154889 2
-0.537958 0.151661 1.164322 0.906378 0.393261 0.154354 2
-0.532648 0.146091 1.148956 0.878594 0.439550 0.186731 2
-0.532862 0.155735 1.123337 0.869639 0.472642 0.142607 2
-0.527857 0.159122 1.078354 0.886847 0.441340 0.136824 2
-0.522700 0.163799 1.040802 0.929532 0.303646 0.209212 2
-0.520045 0.167103 1.027557 0.936315 0.184787 0.298611 2
-0.517329 0.171261 1.019180 0.921145 0.067514 0.383320 2
-0.514551 0.175709 1.012497 0.934556 0.111850 0.337778 2
-0.511866 0.179416 1.001572 0.934690 0.294233 0.199451 2
-0.496119 0.184650 0.919388 0.942588 0.240581 0.231621 2
-0.493525 0.199833 0.893250 0.924157 0.275999 0.264118 2
-0.490809 0.203380 0.881455 0.934233 0.210479 0.287937 2
-0.488154 0.207142 0.870728 0.950571 0.158471 0.267024 2
-0.480219 0.216633 0.828537 0.968275 0.018648 0.249189 2
-0.477473 0.220959 0.821167 0.943810 -0.127070 0.305085 2
-0.471949 0.229854 0.807785 0.948870 0.089686 0.302658 2
-0.458613 0.247433 0.747482 0.906863 0.312420 0.282830 2
-0.455958 0.250736 0.734238 0.960276 0.180041 0.213204 2
-0.453303 0.253788 0.719559 0.959635 0.131085 0.248834 2
-0.450617 0.257587 0.709122 0.953377 0.042248 0.298809 2
-0.447901 0.261715 0.700577 0.959249 -0.007844 0.282453 2
-0.445185 0.265583 0.690506 0.969550 0.042647 0.241153 2
-0.442499 0.269070 0.678299 0.972748 -0.005749 0.231793 2
-0.439814 0.272785 0.667404 0.969749 -0.086276 0.228350 2
-0.434412 0.280376 0.646591 0.969575 -0.067898 0.235189 2
-0.431727 0.284427 0.637512 0.948173 -0.086562 0.305738 2
-0.406916 0.324718 0.578552 0.939481 -0.120837 0.320583 2
-0.388239 0.324993 0.516647 0.915392 -0.269059 0.299441 2
-0.392908 0.349949 0.562073 0.867546 -0.356771 0.346524 2
-0.395716 0.344570 0.563553 0.849229 -0.424071 0.314601 2
-0.384424 0.365597 0.555191 0.850628 -0.263644 0.454889 2
-0.381586 0.371044 0.554215 0.818420 -0.408482 0.404143 2
-0.378718 0.376781 0.554825 0.868757 -0.410886 0.276465 2
-0.370142 0.394070 0.557175 0.832411 -0.480060 0.276827 2
-0.367304 0.399608 0.556763 0.877701 -0.387947 0.281316 2
-0.364466 0.404407 0.552109 0.933891 -0.247453 0.258099 2
-0.361780 0.408535 0.543518 0.952540 -0.161758 0.257878 2
-0.359034 0.412975 0.536759 0.927073 -0.210741 0.310038 2
-0.356196 0.417972 0.533234 0.874553 -0.314131 0.369431 2
-0.353235 0.423450 0.532776 0.788052 -0.514431 0.338134 2
-0.350123 0.429737 0.537079 0.711008 -0.630859 0.310619 2
-0.344416 0.444424 0.556091 0.694449 -0.647245 0.314347 2
-0.341456 0.451649 0.565064 0.701179 -0.613110 0.363930 2
-0.338557 0.458271 0.570725 0.692946 -0.623699 0.361697 2
-0.335596 0.464474 0.574280 0.699981 -0.590713 0.401354 2
-0.326685 0.484485 0.592392 0.609974 -0.697148 0.376718 2
-0.316553 0.504024 0.615250 0.694683 -0.634109 0.339589 2
-0.240290 0.610302 0.730148 0.655017 0.342349 0.673609 2
-0.245936 0.604931 0.735962 0.639667 -0.076378 0.764848 2
-0.234644 0.606052 0.725433 0.707894 0.122182 0.695671 2
-0.228266 0.614315 0.715302 0.675989 0.333428 0.657164 2
0.123083 0.391018 0.264313 -0.625132 -0.774166 0.099389 2
0.135809 0.186916 -0.534164 -0.079293 -0.915816 0.393692 3
0.063848 0.319652 -0.116974 -0.732030 -0.600173 0.322372 2
0.063207 0.314281 -0.130340 -0.696755 -0.670083 0.255970 2
0.074896 0.456676 0.486588 -0.068750 -0.550862 0.831760 2
0.145483 0.216739 -0.361694 -0.454163 -0.837484 0.303903 3
0.139074 0.215275 -0.372345 -0.423137 -0.803305 0.419113 3
-0.724055 -0.144489 1.824265 0.714199 0.416589 0.562471 1
-0.718226 -0.123196 1.800217 0.708343 0.449404 0.544322 1
-0.709772 -0.122097 1.790390 0.575924 0.521463 0.629593 1
-0.709528 -0.110012 1.778748 0.515807 0.565948 0.643153 1
-0.706690 -0.105320 1.772827 0.483414 0.499211 0.719096 1
-0.698420 -0.103604 1.766693 0.458655 0.469735 0.754310 1
-0.684626 -0.079853 1.739807 0.638410 0.466719 0.612050 1
-0.684473 -0.067326 1.730576 0.704802 0.441222 0.555498 1
-0.676172 -0.066593 1.718887 0.714256 0.409451 0.567617 1
-0.673243 -0.048603 1.707596 0.692969 0.305875 0.652866 1
-0.665003 -0.047817 1.697189 0.738667 0.281775 0.612351 1
-0.659601 -0.038426 1.687180 0.739988 0.254892 0.622452 1
-0.653925 -0.029034 1.675705 0.750559 0.305025 0.586192 1
-0.659479 -0.012257 1.675476 0.735699 0.257679 0.626378 1
-0.645533 -0.015019 1.659790 0.722740 0.318323 0.613448 1
-0.626124 0.028690 1.603562 0.691330 0.455382 0.560971 1
-0.603693 0.065105 1.554215 0.695417 0.450015 0.560252 1
-0.600947 0.069530 1.547211 0.684496 0.433920 0.585814 1
-0.598170 0.074108 1.541092 0.706060 0.324099 0.629634 1
-0.592585 0.083523 1.530625 0.772429 0.255656 0.581372 2
-0.587031 0.092579 1.518128 0.785386 0.241437 0.569980 2
-0.584284 0.097317 1.513046 0.780499 0.284967 0.556431 2
-0.581507 0.101604 1.505478 0.713629 0.671822 0.198466 2
-0.574305 0.103351 1.418915 0.748751 0.590633 0.300874 2
-0.571589 0.107075 1.408081 0.809477 0.517278 0.277795 2
-0.558497 0.109333 1.341034 0.829765 0.509649 0.227481 2
-0.555811 0.124828 1.316712 0.823195 0.405775 0.397109 2
-0.553126 0.128651 1.306473 0.785095 0.529684 0.321032 2
-0.542261 0.120617 1.293472 0.736701 0.631764 0.241135 2
-0.539881 0.132885 1.250656 0.769073 0.605028 0.206078 2
-0.537836 0.141041 1.184433 0.890454 0.433985 0.136926 2
-0.535273 0.143322 1.165329 0.916742 0.357817 0.177624 2
-0.530085 0.148685 1.131592 0.795404 0.575282 0.190743 2
-0.527521 0.150669 1.110825 0.773005 0.623213 0.118612 2
-0.525049 0.151951 1.086060 0.833731 0.538169 0.123558 2
-0.522516 0.153507 1.062821 0.872462 0.465965 0.147268 2
-0.520014 0.155620 1.042648 0.890431 0.419690 0.176047 2
-0.517390 0.158321 1.025971 0.903932 0.345434 0.252156 2
-0.514704 0.162052 1.015198 0.892200 0.237564 0.384112 2
-0.511927 0.166378 1.007828 0.930623 0.060969 0.360865 2
-0.509241 0.170376 0.998474 0.916123 0.246463 0.316187 2
-0.498804 0.181553 0.933777 0.943205 0.264190 0.201414 2
-0.490839 0.191479 0.894058 0.903044 0.310867 0.296435 2
-0.485468 0.198398 0.869400 0.904655 0.326593 0.273744 2
-0.482844 0.201473 0.854797 0.924459 0.324450 0.200269 2
-0.480280 0.203998 0.837052 0.940999 0.282349 0.186547 2
-0.477656 0.206745 0.820648 0.955115 0.203926 0.214871 2
-0.475001 0.210132 0.807846 0.957294 0.062532 0.282273 2
-0.472254 0.214397 0.800095 0.926200 -0.125184 0.355643 2
-0.466669 0.224117 0.791382 0.920769 -0.089939 0.379598 2
-0.463923 0.228313 0.783264 0.929321 0.170388 0.327613 2
-0.461268 0.232082 0.772598 0.904606 0.318209 0.283603 2
-0.458582 0.235439 0.759705 0.920038 0.288812 0.264798 2
-0.455927 0.238605 0.745667 0.957358 0.199489 0.208975 2
-0.453333 0.241466 0.729904 0.975069 0.138683 0.173227 2
-0.445551 0.237156 0.689591 0.972131 0.106435 0.208884 2
-0.448115 0.247249 0.698593 0.969954 -0.001923 0.243282 2
-0.442652 0.255421 0.681046 0.971343 -0.033491 0.235310 2
-0.439997 0.258816 0.668289 0.978752 0.029396 0.202930 2
-0.437342 0.261906 0.653870 0.975696 -0.004762 0.219075 2
-0.434656 0.265598 0.642807 0.961130 -0.045930 0.272249 2
-0.431940 0.269756 0.634354 0.960125 -0.063268 0.272318 2
-0.429194 0.274128 0.627289 0.937168 -0.090452 0.336948 2
-0.423640 0.283504 0.616577 0.929158 -0.084699 0.359848 2
-0.410059 0.291477 0.582214 0.939769 -0.058306 0.336800 2
-0.407130 0.310001 0.575241 0.938673 -0.046396 0.341673 2
-0.396387 0.312733 0.543045 0.953883 -0.081556 0.288888 2
-0.398920 0.323162 0.553955 0.958061 -0.021463 0.285758 2
-0.385401 0.330242 0.514542 0.837591 -0.431301 0.335292 2
-0.387659 0.343319 0.540711 0.800862 -0.500015 0.329551 2
-0.384791 0.349476 0.543747 0.808356 -0.465517 0.360354 2
-0.381922 0.355160 0.544068 0.865856 -0.320474 0.384174 2
-0.379114 0.360096 0.540222 0.926247 -0.208735 0.313842 2
-0.376398 0.364292 0.532013 0.957425 -0.158877 0.241031 2
-0.373713 0.368366 0.523087 0.943918 -0.239789 0.226980 2
-0.370905 0.373173 0.518494 0.877540 -0.416347 0.237862 2
-0.368037 0.378780 0.518448 0.814203 -0.518626 0.260961 2
-0.362177 0.391720 0.528122 0.780892 -0.551792 0.292804 2
-0.359339 0.397480 0.528885 0.878862 -0.343897 0.330660 2
-0.356501 0.402645 0.526291 0.865838 -0.231076 0.443766 2
-0.348047 0.418079 0.518189 0.836499 -0.270894 0.476325 2
-0.345057 0.423527 0.517578 0.727180 -0.529592 0.436740 2
-0.342097 0.429783 0.521454 0.667928 -0.621254 0.409774 2
-0.339228 0.436756 0.529053 0.675805 -0.657421 0.333293 2
-0.330408 0.457798 0.552536 0.702082 -0.620122 0.350044 2
-0.321406 0.477543 0.569626 0.707828 -0.621604 0.335541 2
-0.313257 0.476581 0.548706 0.711547 -0.625143 0.320776 2
0.129034 0.370762 0.212814 -0.554712 -0.776675 0.298448 2
0.145941 0.096058 -1.080734 0.126803 -0.967240 0.219929 3
0.133398 0.095424 -1.066147 0.054294 -0.982399 0.178727 3
0.148657 0.090244 -1.108063 0.042299 -0.982896 0.179240 3
0.133093 0.100902 -1.048660 0.168062 -0.948612 0.268123 3
0.089117 0.206470 -0.483581 -0.448173 -0.891049 0.071922 3
-0.011286 0.273853 -0.273422 0.241674 -0.927818 0.284162 3
-0.020746 0.278171 -0.255478 0.103750 -0.946145 0.306668 3
-0.010523 0.268307 -0.292770 0.255952 -0.923480 0.285784 3
-0.260859 0.598949 0.745789 0.606508 -0.282334 0.743260 2
-0.254816 0.595142 0.738709 0.566429 -0.514869 0.643481 2
-0.244868 0.596485 0.731674 0.553155 -0.466701 0.690080 2
-0.740473 -0.172016 1.857300 0.630480 0.452136 0.630926 1
-0.743250 -0.176708 1.863907 0.658938 0.433004 0.615068 1
-0.737635 -0.167324 1.851425 0.618449 0.404903 0.673480 1
-0.734797 -0.162594 1.846298 0.613354 0.421972 0.667635 1
-0.726740 -0.149029 1.830261 0.612527 0.441575 0.655608 1
-0.709925 -0.134625 1.798187 0.700252 0.370533 0.610207 1
-0.712946 -0.139172 1.804321 0.749960 0.361753 0.553800 1
-0.698511 -0.116184 1.775879 0.516844 0.564310 0.643760 1
-0.695673 -0.111553 1.769974 0.506057 0.504889 0.699281 1
-0.693049 -0.093807 1.757767 0.437612 0.482617 0.758668 1
-0.676752 -0.091335 1.739624 0.738926 0.407683 0.536454 1
-0.670923 -0.082684 1.724686 0.733923 0.412348 0.539747 1
-0.673395 -0.061970 1.713028 0.671695 0.310270 0.672725 1
-0.656977 -0.059529 1.695328 0.699096 0.349027 0.624056 1
-0.662256 -0.043194 1.691712 0.729222 0.255122 0.634939 1
-0.648432 -0.032681 1.671326 0.704769 0.335865 0.624896 1
-0.651057 -0.024433 1.670151 0.709385 0.289534 0.642606 1
-0.637079 -0.001125 1.642456 0.711824 0.349006 0.609509 1
-0.623286 0.008312 1.617142 0.695878 0.469519 0.543420 1
-0.623316 0.020588 1.607285 0.649742 0.472196 0.595707 1
-0.620539 0.025143 1.600144 0.637706 0.486584 0.597132 1
-0.612177 0.026279 1.590546 0.640247 0.431661 0.635416 1
-0.609339 0.043537 1.576386 0.523747 0.498301 0.690931 1
-0.601008 0.057216 1.557755 0.640465 0.547015 0.539053 1
-0.589960 0.062328 1.538986 0.675043 0.500050 0.542463 1
-0.584437 0.071323 1.525971 0.703472 0.355990 0.615141 1
-0.587122 0.079662 1.525055 0.741297 0.290703 0.604954 1
-0.584376 0.084194 1.518768 0.731555 0.330631 0.596247 1
-0.581599 0.088848 1.513275 0.682278 0.305902 0.664018 1
-0.578821 0.093685 1.508728 0.688676 0.414024 0.595239 2
-0.576105 0.097767 1.499939 0.698141 0.713655 0.057400 2
-0.571467 0.096355 1.427612 0.706702 0.702780 0.081685 2
-0.568812 0.099308 1.412354 0.789672 0.534324 0.301522 2
-0.555384 0.093845 1.381882 0.795003 0.584569 0.162017 2
-0.555720 0.102192 1.348847 0.797660 0.579237 0.167995 2
-0.555842 0.112736 1.328354 0.819844 0.449991 0.354067 2
-0.553095 0.116703 1.318924 0.771837 0.455673 0.443430 2
-0.550410 0.120899 1.310715 0.765040 0.465599 0.444895 2
-0.542475 0.130031 1.266541 0.748644 0.625144 0.220743 2
-0.537318 0.134991 1.230560 0.695394 0.712529 0.093429 2
-0.532496 0.135975 1.171906 0.704254 0.704316 0.089244 2
-0.529932 0.138210 1.152527 0.846410 0.491978 0.203834 2
-0.524531 0.133953 1.144623 0.775477 0.591004 0.222148 2
-0.516718 0.141765 1.092926 0.737083 0.666656 0.110810 2
-0.519678 0.147007 1.074204 0.749123 0.654888 0.099687 2
-0.517176 0.148533 1.050873 0.789695 0.596588 0.143056 2
-0.514612 0.150677 1.030975 0.802387 0.562907 0.198269 2
-0.511988 0.153660 1.015900 0.825162 0.466739 0.318217 2
-0.503901 0.164966 0.984055 0.927228 0.326625 0.183207 2
-0.501337 0.167347 0.965515 0.937585 0.296636 0.181499 2
-0.498743 0.170101 0.949021 0.942543 0.276238 0.187895 2
-0.493555 0.175274 0.914368 0.954593 0.219046 0.201917 2
-0.490900 0.178844 0.902619 0.955200 0.082413 0.284256 2
-0.488184 0.182842 0.893311 0.932363 0.162658 0.322864 2
-0.480067 0.182033 0.873078 0.911457 0.273000 0.307762 2
-0.482783 0.190372 0.872086 0.892952 0.355581 0.276040 2
-0.480158 0.193470 0.857605 0.905637 0.363645 0.218140 2
-0.474818 0.187900 0.842316 0.919901 0.339132 0.196906 2
-0.474940 0.198543 0.822388 0.894931 0.392177 0.212828 2
-0.472315 0.201549 0.807449 0.867879 0.408782 0.282283 2
-0.469660 0.205143 0.795807 0.849094 0.324323 0.416958 2
-0.466883 0.209644 0.789414 0.771360 0.195969 0.605475 2
-0.461298 0.219280 0.780243 0.864243 0.175523 0.471461 2
-0.458582 0.223430 0.771820 0.931735 0.236428 0.275628 2
-0.455927 0.226726 0.758484 0.951562 0.223345 0.211299 2
-0.453364 0.229259 0.740784 0.974651 0.159643 0.156746 2
-0.434931 0.237972 0.646439 0.963465 0.128720 0.234877 2
-0.440150 0.244556 0.667572 0.973773 -0.016505 0.226922 2
-0.434839 0.251499 0.642944 0.974108 -0.004007 0.226048 2
-0.432123 0.255497 0.633637 0.944988 -0.033109 0.325427 2
-0.426630 0.264217 0.619263 0.944730 -0.014095 0.327546 2
-0.423884 0.268612 0.612259 0.930352 -0.123189 0.345356 2
-0.418329 0.277958 0.601349 0.943051 -0.141831 0.300897 2
-0.415613 0.282421 0.594727 0.938982 -0.179230 0.293582 2
-0.407313 0.295879 0.575287 0.949844 -0.066968 0.305471 2
-0.393671 0.316860 0.534454 0.964781 -0.044016 0.259346 2
-0.390955 0.320675 0.524185 0.960748 -0.067880 0.268990 2
-0.382502 0.336277 0.516892 0.781962 -0.519813 0.343990 2
-0.379603 0.342670 0.521317 0.779408 -0.531476 0.331747 2
-0.376704 0.348591 0.523041 0.875855 -0.373746 0.305275 2
-0.373926 0.353313 0.517868 0.950886 -0.170885 0.258096 2
-0.368555 0.360630 0.495453 0.963751 -0.076844 0.255499 2
-0.365809 0.365108 0.488876 0.905539 -0.273729 0.324146 2
-0.362971 0.370609 0.488175 0.780480 -0.500136 0.375120 2
-0.360010 0.377163 0.493515 0.649515 -0.657919 0.381146 2
-0.357020 0.384395 0.502762 0.633850 -0.684271 0.360566 2
-0.354059 0.391254 0.509796 0.736215 -0.570346 0.364271 2
-0.351160 0.397327 0.512406 0.789198 -0.475328 0.388884 2
-0.348353 0.402958 0.512421 0.834649 -0.352924 0.422854 2
-0.345515 0.408184 0.510132 0.859137 -0.221757 0.461203 2
-0.342707 0.413196 0.506714 0.874939 -0.257782 0.409916 2
-0.339838 0.418583 0.505417 0.782916 -0.434264 0.445485 2
-0.336909 0.424641 0.508042 0.718777 -0.554702 0.419125 2
-0.331110 0.437237 0.515869 0.662348 -0.624659 0.413638 2
-0.328211 0.443905 0.521607 0.659466 -0.660224 0.359456 2
-0.325251 0.450764 0.528565 0.676134 -0.633355 0.376436 2
-0.322291 0.457577 0.535446 0.686671 -0.632693 0.358025 2
-0.319330 0.464123 0.540817 0.735515 -0.586126 0.339815 2
-0.310297 0.483295 0.555023 0.675910 -0.667805 0.311742 2
0.110693 0.170872 -0.668808 -0.463662 -0.867468 0.180323 3
0.112035 0.165226 -0.690399 -0.353241 -0.915554 0.192305 3
-0.015375 0.241588 -0.352524 0.208050 -0.930771 0.300635 3
0.260229 0.040882 -1.125793 -0.788004 -0.613712 -0.049063 3
0.260595 0.037716 -1.106308 -0.751274 -0.659106 -0.034159 3
0.181158 0.229786 -0.154373 -0.706681 -0.591731 0.387887 2
-0.749506 -0.184635 1.875610 0.638796 0.389617 0.663429 1
-0.729883 -0.191326 1.861618 0.634385 0.428330 0.643497 1
-0.726740 -0.161396 1.838455 0.611050 0.413311 0.675124 1
-0.721247 -0.164967 1.835358 0.662223 0.411704 0.626067 1
-0.704310 -0.125256 1.788025 0.610353 0.407471 0.679291 1
-0.701349 -0.120747 1.782227 0.594214 0.476140 0.648229 1
-0.693110 -0.106693 1.765091 0.557680 0.394521 0.730306 1
-0.685023 -0.092312 1.750488 0.616807 0.477705 0.625577 1
-0.679743 -0.095707 1.747360 0.715875 0.415931 0.560825 1
-0.670710 -0.070179 1.714874 0.689543 0.395852 0.606491 1
-0.657099 -0.072590 1.702179 0.677345 0.328609 0.658195 1
-0.659601 -0.051411 1.693161 0.682700 0.361336 0.635103 1
-0.656824 -0.046772 1.687836 0.657473 0.333196 0.675803 1
-0.654139 -0.042011 1.683212 0.654900 0.361109 0.663858 1
-0.645594 -0.028011 1.666031 0.635147 0.346732 0.690192 1
-0.637537 -0.026608 1.658249 0.659057 0.354868 0.663108 1
-0.640101 -0.018589 1.655731 0.690445 0.366170 0.623863 1
-0.620844 -0.011921 1.630051 0.725771 0.339304 0.598439 1
-0.612208 0.013904 1.600968 0.612391 0.509016 0.604880 1
-0.606623 0.035625 1.579666 0.546086 0.436300 0.715146 1
-0.595606 0.041782 1.567078 0.600643 0.523843 0.604001 1
-0.587214 0.066700 1.531723 0.709851 0.401494 0.578718 1
-0.581660 0.076061 1.520905 0.583723 0.427369 0.690379 1
-0.578852 0.080700 1.515366 0.607797 0.395822 0.688409 1
-0.573328 0.090191 1.505264 0.749953 0.499547 0.433617 2
-0.570765 0.092625 1.487030 0.814743 0.574738 0.076621 2
-0.568506 0.091175 1.446610 0.808647 0.586696 0.043334 2
-0.566065 0.091907 1.418625 0.798746 0.580572 0.157928 2
-0.560633 0.087726 1.411224 0.791655 0.544761 0.276619 2
-0.560786 0.098301 1.390869 0.800306 0.542096 0.256207 2
-0.553095 0.105160 1.333603 0.760918 0.566347 0.316631 2
-0.550349 0.108974 1.323349 0.674556 0.577116 0.460338 2
-0.547632 0.113125 1.314911 0.657209 0.581011 0.480106 2
-0.544916 0.117191 1.305969 0.716945 0.572552 0.397711 2
-0.537043 0.126156 1.260864 0.690388 0.688769 0.221272 2
-0.534449 0.128780 1.243698 0.710933 0.678243 0.185907 2
-0.531885 0.130939 1.223831 0.654906 0.743242 0.136705 2
-0.529413 0.132015 1.197907 0.562692 0.824102 0.065066 2
-0.527033 0.132274 1.167206 0.568013 0.819609 0.074849 2
-0.519251 0.140171 1.115906 0.776759 0.593203 0.211557 2
-0.514277 0.142483 1.064911 0.708695 0.696181 0.114382 2
-0.511774 0.144367 1.043457 0.693872 0.701569 0.162303 2
-0.509211 0.146587 1.023987 0.725270 0.652941 0.218293 2
-0.503870 0.153454 0.998947 0.877614 0.333421 0.344419 2
-0.501215 0.156803 0.985993 0.922774 0.322905 0.210285 2
-0.490656 0.145206 0.952591 0.917244 0.347579 0.194555 2
-0.496058 0.161587 0.949051 0.914803 0.344807 0.210339 2
-0.493433 0.164562 0.933914 0.865096 0.464337 0.189740 2
-0.490870 0.166660 0.913773 0.914705 0.362504 0.178624 2
-0.488276 0.169292 0.896698 0.930643 0.260028 0.257465 2
-0.485560 0.173397 0.888001 0.914458 0.114628 0.388108 2
-0.482813 0.177914 0.881638 0.907191 0.119840 0.403290 2
-0.477442 0.185238 0.859207 0.926033 0.312433 0.211773 2
-0.472193 0.190761 0.826584 0.898263 0.354759 0.259365 2
-0.469568 0.194118 0.813538 0.833236 0.459873 0.306976 2
-0.466883 0.197635 0.801514 0.748799 0.535413 0.390683 2
-0.464136 0.201748 0.792923 0.598630 0.502382 0.623903 2
-0.455866 0.203350 0.786362 0.682586 0.356956 0.637698 2
-0.458613 0.211155 0.782379 0.655343 0.490727 0.574206 2
-0.455927 0.214969 0.772019 0.872107 0.417675 0.254905 2
-0.453333 0.217434 0.754013 0.961761 0.232800 0.144290 2
-0.445673 0.211651 0.705231 0.972636 0.156040 0.172136 2
-0.445612 0.224323 0.696976 0.975309 0.112191 0.190223 2
-0.442957 0.227642 0.683807 0.955983 0.146059 0.254488 2
-0.437617 0.234760 0.660202 0.954040 0.164618 0.250417 2
-0.432307 0.241291 0.633179 0.965076 0.063920 0.254052 2
-0.429560 0.245457 0.624924 0.935802 -0.009582 0.352395 2
-0.424036 0.254574 0.612763 0.948139 0.015333 0.317486 2
-0.418635 0.262546 0.594010 0.953425 -0.051401 0.297219 2
-0.415888 0.266682 0.585541 0.971156 -0.043208 0.234498 2
-0.413172 0.270824 0.577042 0.951920 -0.186617 0.242945 2
-0.410395 0.275287 0.570480 0.931802 -0.257048 0.256264 2
-0.404841 0.284855 0.560822 0.937584 -0.244181 0.247614 2
-0.402094 0.289203 0.553589 0.955379 -0.162356 0.246762 2
-0.393915 0.301823 0.529282 0.952284 -0.169782 0.253632 2
-0.388422 0.310161 0.512695 0.956068 -0.106180 0.273238 2
-0.385706 0.314442 0.504990 0.928138 -0.129397 0.349021 2
-0.382899 0.319301 0.500672 0.853888 -0.223443 0.470052 2
-0.380091 0.324596 0.498779 0.851580 -0.275424 0.446043 2
-0.377253 0.330036 0.497727 0.847517 -0.358951 0.390984 2
-0.374384 0.335575 0.497238 0.848333 -0.418971 0.323719 2
-0.371577 0.341083 0.496552 0.892399 -0.351756 0.282652 2
-0.365992 0.350590 0.486694 0.946568 -0.146572 0.287271 2
-0.363245 0.355343 0.481629 0.872595 -0.242647 0.423910 2
-0.360407 0.360508 0.479080 0.779794 -0.294446 0.552470 2
-0.354700 0.371967 0.480286 0.662976 -0.539291 0.519258 2
-0.351771 0.378300 0.484360 0.703362 -0.586182 0.402087 2
-0.348871 0.384647 0.488495 0.795283 -0.522115 0.308093 2
-0.343043 0.397045 0.495163 0.802546 -0.489525 0.341007 2
-0.340204 0.402569 0.494553 0.886649 -0.305416 0.347238 2
-0.334589 0.412510 0.487106 0.880744 -0.341497 0.328131 2
-0.331721 0.418209 0.487656 0.723519 -0.600738 0.340050 2
-0.325861 0.431637 0.500076 0.651932 -0.642303 0.403028 2
-0.317072 0.451160 0.515228 0.723741 -0.578226 0.376635 2
-0.308314 0.469868 0.525894 0.731010 -0.574959 0.367487 2
-0.305292 0.476192 0.530548 0.682927 -0.639705 0.352689 2
-0.302058 0.482708 0.537476 0.613034 -0.713921 0.338387 2
0.168585 0.112438 -0.935882 -0.289371 -0.938614 0.187800 3
0.176824 0.108204 -0.948807 -0.167846 -0.970282 0.174302 3
0.020544 0.265568 -0.325821 0.013747 -0.939965 0.340993 3
0.011999 0.264385 -0.327591 0.180985 -0.925896 0.331603 3
0.020086 0.260166 -0.339889 -0.014136 -0.918277 0.395685 3
-0.724177 -0.182217 1.849060 0.635263 0.452851 0.625593 1
-0.721430 -0.177509 1.843201 0.625996 0.416776 0.659111 1
-0.715967 -0.168430 1.831741 0.694881 0.398023 0.598931 1
-0.713343 -0.163922 1.825211 0.731643 0.422240 0.535175 1
-0.710291 -0.147297 1.806961 0.729974 0.432008 0.529628 1
-0.701868 -0.146359 1.795441 0.731031 0.357193 0.581383 1
-0.704401 -0.138073 1.794037 0.700735 0.281794 0.655411 1
-0.698756 -0.128582 1.784470 0.705788 0.277573 0.651780 1
-0.695917 -0.123959 1.779007 0.665671 0.382845 0.640555 1
-0.690302 -0.114735 1.767426 0.629796 0.415263 0.656440 1
-0.687708 -0.109982 1.762451 0.621271 0.348607 0.701780 1
-0.682429 -0.100414 1.753342 0.664590 0.331082 0.669855 1
-0.665430 -0.086392 1.719940 0.688205 0.390822 0.611255 1
-0.654169 -0.054974 1.689652 0.646391 0.337219 0.684444 1
-0.640742 -0.044300 1.670639 0.704988 0.361321 0.610279 1
-0.634699 -0.022114 1.652252 0.695027 0.411167 0.589813 1
-0.626398 -0.021206 1.641358 0.726104 0.330192 0.603114 1
-0.623469 -0.003788 1.628098 0.708564 0.438592 0.552787 1
-0.615168 -0.003117 1.616364 0.680908 0.460724 0.569296 1
-0.614985 0.009365 1.607056 0.623305 0.449498 0.639877 1
-0.606653 0.022877 1.587586 0.593063 0.500514 0.630684 1
-0.603876 0.027546 1.581970 0.553190 0.425799 0.716015 1
-0.598353 0.037166 1.572861 0.533978 0.467640 0.704401 1
-0.592829 0.046146 1.559769 0.645537 0.539163 0.540912 1
-0.581721 0.051288 1.541031 0.647149 0.538341 0.539803 1
-0.584498 0.058903 1.535843 0.628279 0.567495 0.532179 1
-0.581721 0.063251 1.528549 0.572925 0.540797 0.615869 1
-0.578943 0.067959 1.523193 0.531436 0.461721 0.710203 1
-0.570612 0.082134 1.507813 0.653114 0.448443 0.610197 2
-0.567866 0.086208 1.499024 0.826948 0.548153 0.125237 2
-0.563227 0.085155 1.428650 0.821856 0.557851 0.115566 2
-0.557978 0.091228 1.399094 0.754265 0.600100 0.266391 2
-0.552851 0.095615 1.359863 0.769599 0.618848 0.157306 2
-0.550287 0.097942 1.341004 0.743367 0.620731 0.249197 2
-0.547632 0.101528 1.329346 0.619437 0.642464 0.451151 2
-0.536677 0.106327 1.309006 0.623121 0.633395 0.458836 2
-0.539484 0.113567 1.301697 0.647720 0.681074 0.341462 2
-0.536829 0.116916 1.288742 0.631264 0.724399 0.277042 2
-0.534174 0.119823 1.273239 0.630639 0.742663 0.225270 2
-0.531580 0.122417 1.255966 0.672779 0.714254 0.192898 2
-0.520991 0.123310 1.213242 0.708677 0.683583 0.174618 2
-0.523920 0.128940 1.196777 0.571224 0.816377 0.085033 2
-0.521540 0.129047 1.165268 0.578378 0.813548 0.060150 2
-0.519068 0.129986 1.138458 0.733560 0.654490 0.183119 2
-0.513880 0.135685 1.106705 0.813277 0.555375 0.173606 2
-0.511347 0.137111 1.082749 0.769405 0.626111 0.126492 2
-0.503443 0.134487 1.052078 0.738317 0.657522 0.150174 2
-0.503718 0.142834 1.019074 0.718544 0.672304 0.178051 2
-0.501124 0.145542 1.002411 0.819959 0.516581 0.246598 2
-0.498530 0.148403 0.986572 0.915645 0.348901 0.199657 2
-0.490717 0.156689 0.937470 0.877640 0.385379 0.285011 2
-0.485529 0.161526 0.900925 0.844950 0.503136 0.181421 2
-0.482905 0.164623 0.886398 0.888863 0.284103 0.359455 2
-0.477412 0.173336 0.871903 0.901079 0.170872 0.398572 2
-0.472071 0.168339 0.859894 0.933318 0.247264 0.260341 2
-0.472162 0.179294 0.841705 0.925240 0.324237 0.196980 2
-0.469568 0.182178 0.826019 0.923495 0.287470 0.254004 2
-0.466852 0.185970 0.815598 0.892407 0.299728 0.337302 2
-0.464136 0.189968 0.806275 0.877955 0.314617 0.360848 2
-0.461420 0.193920 0.796768 0.846941 0.255541 0.466251 2
-0.458643 0.198467 0.790634 0.763714 0.219956 0.606927 2
-0.453120 0.207668 0.778931 0.875477 0.396794 0.275853 2
-0.450587 0.209835 0.759079 0.916385 0.386828 0.102968 2
-0.448206 0.209781 0.726715 0.948426 0.302258 0.095538 2
-0.443018 0.214908 0.691742 0.948911 0.186801 0.254311 2
-0.434962 0.225666 0.656799 0.954859 0.154834 0.253518 2
-0.429682 0.232067 0.629089 0.939559 0.201468 0.276838 2
-0.426996 0.235935 0.619095 0.923164 0.137880 0.358827 2
-0.418909 0.235363 0.600067 0.918395 0.154606 0.364209 2
-0.421473 0.244739 0.605164 0.941292 0.009565 0.337459 2
-0.418787 0.248653 0.595322 0.967535 0.020258 0.251922 2
-0.408045 0.263218 0.550034 0.968131 -0.076897 0.238346 2
-0.405298 0.267467 0.542221 0.944616 -0.225790 0.238159 2
-0.394282 0.285580 0.517166 0.945061 -0.229637 0.232651 2
-0.385981 0.299213 0.498688 0.930388 -0.231203 0.284469 2
-0.383204 0.304149 0.494782 0.880479 -0.294332 0.371654 2
-0.380366 0.309383 0.492569 0.832254 -0.287110 0.474259 2
-0.377527 0.314815 0.491409 0.814581 -0.260685 0.518170 2
-0.374720 0.320019 0.489044 0.864673 -0.164552 0.474618 2
-0.371912 0.324772 0.484131 0.903675 -0.118525 0.411490 2
-0.369166 0.329281 0.477707 0.942152 -0.143541 0.302897 2
-0.366389 0.333942 0.472244 0.909584 -0.290705 0.296898 2
-0.363611 0.338917 0.468537 0.913483 -0.279283 0.295889 2
-0.360773 0.344181 0.466461 0.861265 -0.364516 0.354049 2
-0.357905 0.349850 0.466767 0.792232 -0.458543 0.402624 2
-0.355036 0.355755 0.468353 0.813377 -0.425233 0.396983 2
-0.352198 0.361446 0.468750 0.778959 -0.395859 0.486331 2
-0.349360 0.366794 0.467224 0.868528 -0.341797 0.358935 2
-0.346552 0.371799 0.463654 0.903275 -0.308990 0.297692 2
-0.343775 0.376758 0.459854 0.876766 -0.385733 0.287213 2
-0.340906 0.382465 0.460343 0.787271 -0.542269 0.293511 2
-0.335047 0.395649 0.471451 0.802179 -0.516994 0.298708 2
-0.332209 0.400898 0.469269 0.913937 -0.280160 0.293648 2
-0.329462 0.405453 0.463150 0.915847 -0.267867 0.299119 2
-0.326655 0.410572 0.460297 0.826591 -0.454787 0.331536 2
-0.323694 0.416996 0.465012 0.680836 -0.658002 0.321708 2
-0.317683 0.431751 0.485092 0.672910 -0.663934 0.326165 2
-0.314722 0.438564 0.491821 0.686880 -0.626031 0.369164 2
-0.300776 0.451198 0.484070 0.717670 -0.580882 0.384090 2
-0.303095 0.463924 0.508225 0.701992 -0.596065 0.389760 2
-0.300135 0.470142 0.511887 0.716453 -0.586766 0.377360 2
-0.297022 0.476375 0.516510 0.653669 -0.670261 0.351379 2
0.004156 0.499004 0.451599 -0.512983 -0.842675 0.163543 2
0.009557 0.495151 0.450440 -0.592186 -0.786282 0.176284 2
-0.010065 0.262691 -0.310394 0.279361 -0.908142 0.311826 3
-0.033716 0.465969 0.284470 0.026626 -0.933104 0.358619 2
-0.148585 -0.264111 1.261505 0.307705 0.414497 0.856452 1
0.035986 0.262707 -0.331451 -0.030252 -0.920197 0.390286 3
0.011297 0.259029 -0.340591 0.261004 -0.893618 0.365135 3
-0.321100 0.728916 0.713516 0.658594 0.561473 0.501001 2
-0.329096 0.723934 0.728836 0.673220 0.474166 0.567399 2
-0.314997 0.725597 0.709473 0.636027 0.587103 0.500779 2
-0.704829 -0.150829 1.802765 0.738221 0.419415 0.528319 1
-0.698878 -0.141689 1.789414 0.739519 0.258225 0.621636 1
-0.684870 -0.118183 1.763504 0.714056 0.305936 0.629704 1
-0.677180 -0.104031 1.748627 0.764417 0.260621 0.589698 1
-0.674280 -0.099484 1.741562 0.828126 0.286910 0.481550 1
-0.671168 -0.095280 1.733063 0.836487 0.275566 0.473659 1
-0.668207 -0.090862 1.725845 0.795496 0.280740 0.537002 1
-0.659876 -0.077290 1.707703 0.664132 0.406530 0.627425 1
-0.648859 -0.071446 1.692658 0.686250 0.347018 0.639249 1
-0.637903 -0.065418 1.679917 0.643963 0.341087 0.684815 1
-0.643519 -0.048962 1.676605 0.678848 0.369888 0.634309 1
-0.637873 -0.039494 1.664597 0.762596 0.222428 0.607432 1
-0.632166 -0.030163 1.654450 0.748766 0.296966 0.592588 1
-0.606714 0.010685 1.598786 0.526038 0.534314 0.661660 1
-0.601160 0.019657 1.585724 0.480667 0.586583 0.651828 1
-0.598444 0.024357 1.580155 0.523772 0.476375 0.706208 1
-0.595637 0.029133 1.575440 0.542377 0.419525 0.727891 1
-0.592860 0.033840 1.570252 0.626124 0.445336 0.640035 1
-0.590082 0.038303 1.563568 0.716350 0.446525 0.536152 1
-0.570704 0.056949 1.525391 0.539134 0.542682 0.644073 1
-0.567927 0.061535 1.519486 0.577841 0.461367 0.673231 1
-0.565150 0.078525 1.503647 0.828626 0.460811 0.317855 2
-0.562617 0.080753 1.484207 0.817457 0.572697 0.061504 2
-0.560358 0.079288 1.443695 0.792723 0.607753 0.047178 2
-0.557886 0.080364 1.417740 0.772013 0.606137 0.191298 2
-0.555201 0.083896 1.405792 0.774646 0.549386 0.313207 2
-0.552546 0.087162 1.392319 0.788274 0.582941 0.196986 2
-0.547480 0.091244 1.351303 0.716478 0.667208 0.203695 2
-0.544825 0.094242 1.336365 0.660534 0.681144 0.315812 2
-0.533991 0.110226 1.299072 0.516205 0.752557 0.408889 2
-0.531306 0.113666 1.286682 0.563975 0.780003 0.271158 2
-0.528681 0.116375 1.270050 0.622545 0.759244 0.189703 2
-0.526148 0.118458 1.249771 0.693380 0.703766 0.154719 2
-0.523585 0.120640 1.230148 0.746242 0.637954 0.190100 2
-0.518458 0.125278 1.192322 0.726898 0.681817 0.082126 2
-0.516077 0.125355 1.160629 0.635196 0.770074 0.059259 2
-0.513636 0.125950 1.131912 0.697882 0.707396 0.112037 2
-0.511072 0.128338 1.113373 0.829889 0.527888 0.180606 2
-0.508478 0.130520 1.093750 0.872184 0.462860 0.158291 2
-0.498347 0.138347 1.009857 0.854984 0.497709 0.145905 2
-0.495783 0.140468 0.989884 0.889067 0.424529 0.171274 2
-0.493220 0.142628 0.970093 0.900510 0.399002 0.172855 2
-0.485255 0.140362 0.941452 0.876237 0.387454 0.286512 2
-0.485316 0.152256 0.928589 0.874019 0.412591 0.256633 2
-0.482691 0.154789 0.910996 0.853947 0.492345 0.168438 2
-0.480158 0.156803 0.890335 0.862794 0.458161 0.213720 2
-0.477503 0.160129 0.877243 0.916830 0.251895 0.309793 2
-0.474818 0.164356 0.869156 0.921446 0.129111 0.366424 2
-0.469416 0.171367 0.845062 0.894768 0.394848 0.208531 2
-0.466852 0.173847 0.827072 0.890431 0.391469 0.232131 2
-0.464167 0.177326 0.814804 0.886158 0.312340 0.342296 2
-0.458765 0.185261 0.795868 0.929666 0.186128 0.317928 2
-0.456049 0.189274 0.786652 0.937566 -0.022269 0.347093 2
-0.450495 0.198803 0.776825 0.958801 -0.044946 0.280499 2
-0.447809 0.201916 0.762589 0.972723 0.198279 0.120396 2
-0.445460 0.201710 0.729233 0.952515 0.293497 0.081085 2
-0.443049 0.202495 0.701508 0.949106 0.259187 0.178940 2
-0.435053 0.200878 0.676621 0.942111 0.231690 0.242378 2
-0.437708 0.209621 0.677948 0.942569 0.242136 0.230074 2
-0.435053 0.212810 0.664063 0.956648 0.154316 0.247006 2
-0.427119 0.210262 0.633804 0.955042 0.138609 0.262074 2
-0.427027 0.223301 0.627609 0.947971 0.165402 0.272017 2
-0.421686 0.218288 0.615402 0.908976 0.176066 0.377841 2
-0.416193 0.239017 0.588867 0.954705 0.159658 0.251093 2
-0.413569 0.242420 0.576126 0.971226 0.095809 0.218039 2
-0.408228 0.249332 0.551346 0.970145 0.023952 0.241340 2
-0.405512 0.252865 0.539459 0.964159 0.043700 0.261702 2
-0.402827 0.256733 0.529450 0.957337 0.033320 0.287046 2
-0.400110 0.260799 0.520523 0.957948 0.071812 0.277809 2
-0.397394 0.264675 0.510574 0.956891 -0.009381 0.290296 2
-0.394678 0.268810 0.502030 0.947890 -0.141456 0.285471 2
-0.386408 0.282398 0.483292 0.939503 -0.213183 0.268116 2
-0.383600 0.287182 0.478516 0.913585 -0.283351 0.291677 2
-0.380793 0.292484 0.476624 0.862999 -0.378930 0.334132 2
-0.377894 0.298145 0.476959 0.807582 -0.466873 0.360333 2
-0.375056 0.304058 0.478546 0.813480 -0.433365 0.387873 2
-0.372187 0.309765 0.479035 0.853322 -0.347383 0.388801 2
-0.369410 0.314739 0.475311 0.944630 -0.135758 0.298737 2
-0.361445 0.312046 0.444306 0.947693 -0.132670 0.290306 2
-0.361170 0.327495 0.451874 0.925404 -0.206989 0.317463 2
-0.358362 0.332493 0.448288 0.867037 -0.302319 0.396042 2
-0.355524 0.337833 0.446716 0.827825 -0.372993 0.419024 2
-0.352686 0.343601 0.447479 0.801659 -0.454561 0.388222 2
-0.346949 0.355152 0.449204 0.848248 -0.400726 0.346256 2
-0.341730 0.348598 0.428238 0.893622 -0.295752 0.337596 2
-0.341364 0.364826 0.440247 0.907003 -0.266239 0.326286 2
-0.338587 0.369808 0.436600 0.884415 -0.319776 0.339932 2
-0.335718 0.375332 0.436066 0.786774 -0.424052 0.448516 2
-0.332819 0.381573 0.439606 0.736052 -0.586381 0.338207 2
-0.329890 0.388157 0.445114 0.768168 -0.544165 0.337346 2
-0.326990 0.394001 0.446381 0.865908 -0.376073 0.329806 2
-0.324183 0.399135 0.443634 0.862458 -0.338855 0.375958 2
-0.321345 0.404461 0.441910 0.775207 -0.439750 0.453513 2
-0.318476 0.410503 0.444306 0.683074 -0.596254 0.421771 2
-0.315516 0.417293 0.451004 0.624724 -0.690075 0.365399 2
-0.306605 0.438259 0.474411 0.664842 -0.644465 0.377690 2
-0.297846 0.457531 0.488175 0.763610 -0.534512 0.362212 2
-0.294947 0.463581 0.490631 0.799161 -0.508066 0.321264 2
-0.291987 0.469654 0.493530 0.724775 -0.613585 0.313393 2
-0.204920 0.575184 0.676560 0.415794 -0.248945 0.874724 2
-0.282099 0.588787 0.758881 0.551849 -0.568395 0.610238 2
-0.713709 -0.201679 1.851822 0.664242 0.385810 0.640260 1
-0.718806 -0.185681 1.845764 0.692308 0.407737 0.595365 1
-0.705225 -0.163128 1.813141 0.771071 0.377473 0.512800 1
-0.690821 -0.153790 1.784851 0.751957 0.355289 0.555275 1
-0.687922 -0.149136 1.779205 0.703962 0.233178 0.670869 1
-0.687830 -0.135670 1.775437 0.693333 0.226391 0.684132 1
-0.679651 -0.134670 1.766037 0.737140 0.321955 0.594113 1
-0.679560 -0.121823 1.758637 0.787435 0.254583 0.561368 1
-0.674311 -0.112576 1.748078 0.815143 0.217659 0.536811 1
-0.668574 -0.103794 1.732987 0.850376 0.282899 0.443655 1
-0.665491 -0.099468 1.724976 0.815101 0.229513 0.531916 1
-0.662653 -0.094731 1.720017 0.742767 0.207577 0.636561 1
-0.659968 -0.089878 1.716004 0.617977 0.277545 0.735577 1
-0.657282 -0.085285 1.710968 0.604824 0.459177 0.650649 1
-0.651728 -0.076061 1.698593 0.649428 0.455280 0.609068 1
-0.643397 -0.074986 1.688980 0.644394 0.335814 0.687012 1
-0.632380 -0.043644 1.658569 0.813961 0.219317 0.537929 1
-0.626704 -0.033970 1.648407 0.807956 0.161611 0.566647 1
-0.620936 -0.025036 1.635956 0.791279 0.231155 0.566078 1
-0.609705 -0.019505 1.619568 0.750803 0.260247 0.607097 1
-0.609614 -0.006626 1.612518 0.652326 0.363527 0.665071 1
-0.606806 -0.001957 1.607102 0.551052 0.460024 0.696218 1
-0.590266 0.013500 1.583847 0.517464 0.573254 0.635303 1
-0.590204 0.025844 1.573059 0.536691 0.517583 0.666386 1
-0.581782 0.039005 1.551560 0.690610 0.433705 0.578756 1
-0.576258 0.047962 1.538376 0.594948 0.523618 0.609804 1
-0.562464 0.058079 1.516144 0.727519 0.435336 0.530281 2
-0.559717 0.062351 1.508484 0.786031 0.428943 0.445155 2
-0.559748 0.074001 1.494293 0.842372 0.509181 0.176477 2
-0.557307 0.074848 1.466934 0.772649 0.632575 0.053501 2
-0.554957 0.074444 1.432526 0.695366 0.713435 0.086462 2
-0.552424 0.076473 1.411957 0.705204 0.681295 0.196279 2
-0.549769 0.079754 1.398575 0.820325 0.507730 0.263205 2
-0.544581 0.084980 1.364121 0.745763 0.640325 0.183908 2
-0.541987 0.087566 1.346787 0.632226 0.732154 0.253458 2
-0.539332 0.090900 1.333756 0.574737 0.741931 0.345276 2
-0.533900 0.099056 1.316025 0.524817 0.686947 0.502663 2
-0.525782 0.110546 1.285339 0.586838 0.776283 0.230229 2
-0.518214 0.116314 1.221802 0.797841 0.576137 0.177526 2
-0.520746 0.114231 1.242066 0.740629 0.660096 0.125469 2
-0.515558 0.118992 1.205063 0.841949 0.517222 0.153637 2
-0.513087 0.120426 1.181091 0.855605 0.508162 0.098549 2
-0.508265 0.121403 1.122315 0.791963 0.602098 0.101354 2
-0.505762 0.123028 1.099442 0.879511 0.458612 0.127028 2
-0.497919 0.119137 1.061569 0.919307 0.357627 0.164250 2
-0.498072 0.129551 1.040360 0.858578 0.490611 0.148810 2
-0.493067 0.132770 0.994431 0.885677 0.435107 0.162044 2
-0.490473 0.135090 0.975571 0.843490 0.502464 0.189881 2
-0.487910 0.137340 0.956314 0.822100 0.531065 0.205237 2
-0.482599 0.143993 0.930039 0.903198 0.351825 0.245873 2
-0.479975 0.147114 0.915665 0.910604 0.370536 0.183038 2
-0.474818 0.151638 0.877365 0.912341 0.354602 0.204671 2
-0.466852 0.149883 0.851563 0.922206 0.217288 0.319878 2
-0.466761 0.162861 0.844986 0.932320 0.201460 0.300323 2
-0.464106 0.166195 0.831940 0.884818 0.389385 0.255884 2
-0.461481 0.169323 0.817627 0.838479 0.461156 0.290323 2
-0.458765 0.172893 0.805985 0.891463 0.331854 0.308490 2
-0.456110 0.176426 0.794006 0.936827 0.249272 0.245397 2
-0.453486 0.179569 0.779785 0.961810 0.149371 0.229369 2
-0.450770 0.183086 0.767792 0.960454 -0.096392 0.261223 2
-0.448054 0.187183 0.759064 0.976603 -0.069023 0.203673 2
-0.440302 0.182651 0.717453 0.978125 0.123355 0.167497 2
-0.442866 0.192310 0.724091 0.970898 0.217457 0.100349 2
-0.440394 0.193806 0.700455 0.954208 0.256081 0.154630 2
-0.437708 0.197498 0.689438 0.955640 0.176334 0.235922 2
-0.429804 0.206806 0.646134 0.945376 0.233483 0.227485 2
-0.421778 0.205005 0.620270 0.924079 0.166673 0.343945 2
-0.416224 0.226780 0.599701 0.911075 0.196024 0.362653 2
-0.413538 0.230327 0.587830 0.939254 0.241296 0.244088 2
-0.410914 0.233105 0.571579 0.964810 0.198386 0.172585 2
-0.400324 0.233738 0.527390 0.947885 0.022580 0.317812 2
-0.397486 0.251530 0.516174 0.933687 0.107418 0.341598 2
-0.386835 0.253300 0.478455 0.963885 -0.005738 0.266255 2
-0.384089 0.257587 0.470810 0.948231 -0.120499 0.293835 2
-0.381312 0.262066 0.464325 0.938494 -0.113195 0.326214 2
-0.381129 0.276195 0.464325 0.938976 -0.073864 0.335959 2
-0.378351 0.280865 0.458923 0.907566 -0.189321 0.374808 2
-0.375574 0.285930 0.455689 0.863094 -0.328703 0.383435 2
-0.372706 0.291508 0.455444 0.817139 -0.435113 0.378101 2
-0.369837 0.297420 0.457108 0.812458 -0.460342 0.357766 2
-0.366968 0.303074 0.457260 0.890663 -0.317573 0.325372 2
-0.364222 0.307850 0.452377 0.943677 -0.182132 0.276228 2
-0.358698 0.316746 0.439011 0.892286 -0.233330 0.386501 2
-0.353022 0.327343 0.435303 0.786318 -0.310921 0.533884 2
-0.347376 0.338138 0.432724 0.806808 -0.315170 0.499728 2
