-0.032587 0.203080 0.639672 -0.09012395 -0.93047549 0.35509581 2.000000
-0.038766 0.203415 0.640416 0.08708501 -0.93099609 0.35448904 2.000000
-0.175081 0.255417 1.096976 0.38081194 -0.92170684 0.07374799 2.000000
-0.167390 0.259415 1.110410 0.36240798 -0.93181094 0.019719 2.000000
-0.086130 0.274766 1.235398 0.28852405 -0.93034616 0.22629604 2.000000
-0.150567 0.323014 1.460851 0.85556298 0.080403 0.51141699 1.000000
-0.363504 0.287095 1.676097 0.13612893 -0.92530451 0.35394981 2.000000
-0.357408 0.287003 1.672170 0.35415108 -0.8909762 0.28414506 2.000000
-0.443979 0.084702 1.560494 0.81943598 -0.179741 0.54425899 2.000000
-0.449365 0.085221 1.568309 0.7877058 -0.31542092 0.52917787 2.000000
-0.460443 0.085557 1.609818 0.98046455 -0.17266492 0.09421296 2.000000
-0.462663 0.085801 1.634894 0.9894272 -0.06969601 0.12718603 2.000000
-0.471147 0.086411 1.663159 0.92024841 0.06707703 0.38554317 2.000000
-0.479562 0.086899 1.692376 0.98102513 -0.05739001 0.18519202 2.000000
-0.482309 0.093339 1.711186 0.97490253 -0.10691495 0.19527991 2.000000
-0.490381 0.087632 1.740676 0.98523688 0.001122 0.17119298 2.000000
-0.493364 0.087876 1.761298 0.9892412 -0.08436402 0.11951802 2.000000
-0.495363 0.088090 1.787951 0.92613512 -0.37505805 0.04006501 2.000000
-0.493188 0.094254 1.837947 0.91719321 -0.39732009 0.02988901 2.000000
-0.498002 0.088303 1.849277 0.81370891 -0.57469194 0.08721799 2.000000
-0.501466 0.088547 1.866855 0.83085101 -0.52387801 0.187719 2.000000
-0.504945 0.088822 1.884370 0.9715727 -0.23660893 0.007918 2.000000
-0.504404 0.089066 2.005267 0.95661318 -0.11444302 0.26794405 2.000000
-0.512865 0.089615 2.031150 0.946895 -0.123562 0.296854 2.000000
-0.521013 0.090165 2.058360 0.93727949 0.006054 0.34852618 2.000000
-0.531831 0.090928 2.110957 0.99439824 0.019963 0.10379603 1.000000
-0.534341 0.091141 2.135102 0.97453565 -0.16036594 0.15672594 1.000000
-0.547433 0.098038 2.169267 0.83516495 -0.015398 0.54978397 1.000000
-0.557596 0.092454 2.184813 0.8518082 -0.003496 0.52384212 1.000000
-0.567056 0.099320 2.199904 0.83890496 0.004662 0.54425797 1.000000
-0.572267 0.099625 2.207162 0.7985779 -0.020539 0.60154093 1.000000
-0.577775 0.093674 2.214078 0.81588825 0.011249 0.57810018 1.000000
-0.582757 0.094010 2.222804 0.91705879 0.06576199 0.39329191 1.000000
-0.592073 0.094468 2.247920 0.92685036 0.09623204 0.36288814 1.000000
-0.596628 0.094803 2.257094 0.88699292 0.045772 0.45950896 1.000000
-0.606264 0.095383 2.272103 0.86081021 -0.05775701 0.50563812 1.000000
-0.610910 0.101975 2.280423 0.85163296 -0.00334 0.52412798 1.000000
-0.620874 0.102585 2.296062 0.82210485 0.023573 0.5688479 1.000000
-0.626260 0.096696 2.303802 0.80010603 0.072436 0.59546903 1.000000
-0.631616 0.097001 2.310620 0.80142497 0.108476 0.58817598 1.000000
-0.642572 0.098008 2.329577 0.91031993 -0.062194 0.40920597 1.000000
-0.651185 0.104722 2.350472 0.89029532 -0.09310503 0.44576416 1.000000
-0.661752 0.098771 2.369517 0.90552554 0.01483701 0.42403225 1.000000
-0.419824 0.069382 1.458133 0.96777482 0.14282297 0.20739696 2.000000
-0.415971 0.065262 1.440686 0.97221259 0.17589293 0.15448093 2.000000
-0.415712 0.072831 1.431327 0.99089531 0.03588201 0.12976504 2.000000
-0.420068 0.061875 1.466184 0.9495972 0.19627404 0.24442105 2.000000
-0.064050 0.167985 0.589168 -0.44516312 -0.86000723 0.24943407 2.000000
-0.301393 0.166855 0.930102 0.70972213 -0.65910312 0.24875204 2.000000
-0.308793 0.155625 0.923570 0.70078711 -0.6581181 0.27527804 2.000000
-0.302354 0.161637 0.922479 0.6999317 -0.64784572 0.30065187 2.000000
-0.142549 0.192856 0.670684 0.57245476 -0.67210671 0.4696468 2.000000
-0.136857 0.193253 0.664666 0.46611691 -0.76222785 0.44915891 2.000000
-0.136171 0.198777 0.671290 0.49681106 -0.63450008 0.59210507 2.000000
-0.240121 0.189499 0.836831 0.11742303 -0.93047628 0.3470241 2.000000
-0.234483 0.189164 0.830777 0.38029084 -0.90603962 0.18566392 2.000000
-0.232858 0.193680 0.844937 0.121238 -0.94397098 0.30695299 2.000000
-0.238969 0.194352 0.846463 -0.04858499 -0.9002308 0.4326939 2.000000
-0.324464 0.172288 1.082311 0.85669829 -0.51183917 0.06394302 2.000000
-0.137941 0.215561 0.778306 0.11056705 -0.98871142 0.10111704 2.000000
-0.140123 0.212388 0.756623 0.12441596 -0.98785869 0.09303697 2.000000
-0.151910 0.212052 0.764625 0.131915 -0.98625997 0.099447 2.000000
-0.143808 0.215317 0.782640 0.15051894 -0.98500261 0.08434397 2.000000
-0.161981 0.212327 0.857751 0.81733891 -0.55579694 0.15181198 2.000000
-0.146867 0.217209 0.815856 0.17243804 -0.98088822 0.09013002 2.000000
-0.209711 0.239182 1.002799 0.24886605 -0.95798318 0.14259703 2.000000
-0.373765 0.268906 1.645331 0.49790707 -0.85035211 0.17026402 2.000000
-0.370881 0.265732 1.609355 0.54837809 -0.82755113 0.12016902 2.000000
-0.240343 0.299149 1.582057 0.11340002 -0.98545714 0.12654902 2.000000
-0.212610 0.303025 1.541799 0.21830991 -0.96515361 0.14428894 2.000000
-0.350831 0.259263 1.548017 0.51328399 -0.82465499 0.237663 2.000000
-0.298921 0.265702 1.439988 0.53640117 -0.84220127 0.05450502 2.000000
-0.294221 0.267808 1.421750 0.46723129 -0.88243054 0.05487503 2.000000
-0.291673 0.270371 1.449224 0.45735493 -0.88595785 0.07684499 2.000000
-0.303819 0.263840 1.456845 0.56599212 -0.81487417 0.12503203 2.000000
-0.158472 0.285538 1.326278 -0.14551403 -0.9687852 0.20070104 2.000000
-0.231553 0.294236 1.477569 0.14851104 -0.98508423 0.08691102 2.000000
-0.225603 0.294327 1.474309 0.14146105 -0.98808737 0.06059802 2.000000
-0.306413 0.271805 1.483321 0.52205373 -0.75129461 0.40375279 2.000000
-0.054384 0.261307 1.046205 -0.04774099 -0.99833173 0.03247399 2.000000
-0.056337 0.261307 1.092338 -0.18442895 -0.98284371 -0.002049 2.000000
-0.063005 0.262406 1.087441 -0.13359898 -0.99100788 0.007396 2.000000
-0.218118 0.247025 1.176919 0.43965005 -0.88527009 0.15167302 2.000000
-0.215616 0.246079 1.137113 0.36327609 -0.93113824 0.03181301 2.000000
-0.212907 0.248337 1.164895 0.45378813 -0.88959625 0.05191201 2.000000
-0.096239 0.250687 1.005525 -0.40431925 -0.89289555 0.19815012 2.000000
-0.122529 0.233750 0.866817 0.21279306 -0.96329425 0.16365604 2.000000
-0.342370 0.162583 1.157336 0.73281192 -0.67270593 0.10224199 2.000000
-0.343477 0.158585 1.139970 0.78372649 -0.60816838 0.12611108 2.000000
-0.426271 0.088303 1.500457 0.92446928 -0.35225811 0.14584504 2.000000
-0.217416 0.180375 0.749530 0.420302 -0.905453 0.05917 2.000000
-0.219552 0.177231 0.724238 0.58575185 -0.80299279 0.10998797 2.000000
-0.016153 0.190171 0.628345 -0.52182786 -0.78907378 0.32412691 2.000000
-0.009515 0.188340 0.636039 -0.53330812 -0.81991219 0.20815005 2.000000
-0.044610 0.165299 0.598273 -0.05686798 -0.92369368 0.37888787 2.000000
-0.038301 0.164780 0.598535 -0.16396505 -0.90890627 0.38341212 2.000000
-0.049905 0.170579 0.606511 -0.08052897 -0.80155766 0.59246975 2.000000
-0.050744 0.165726 0.598973 -0.10419504 -0.91943736 0.37918115 2.000000
0.026190 0.180222 0.681939 -0.62681409 -0.75915811 0.17545103 2.000000
-0.119958 0.215623 0.769816 0.10321203 -0.99462725 0.007995 2.000000
-0.117044 0.217545 0.800044 -0.02211101 -0.99087929 0.13292604 2.000000
-0.168901 0.269120 1.224046 0.21704903 -0.97250216 0.08443501 2.000000
-0.163057 0.269394 1.218858 0.031719 -0.99306784 0.11318198 2.000000
-0.166719 0.272324 1.245522 0.24067008 -0.95675031 0.16342205 2.000000
-0.174341 0.268143 1.233453 0.25053204 -0.96473516 0.08074501 2.000000
-0.214029 0.349045 1.573462 0.80916931 0.03963502 0.58623723 1.000000
-0.219469 0.348160 1.582156 0.86173668 0.08709797 0.49982381 1.000000
-0.175470 0.368394 1.507106 0.87109098 0.00472 0.49109899 1.000000
-0.111803 0.355301 1.391616 0.81824303 0.046113 0.57302002 1.000000
-0.116838 0.354630 1.399642 0.85201792 0.07305699 0.51838995 1.000000
-0.328691 0.313340 1.699342 0.20523705 -0.83839319 0.50495011 2.000000
-0.321809 0.318650 1.704555 0.194854 -0.78522801 0.58774901 2.000000
-0.192895 0.333756 1.538384 0.89382179 -0.16370396 0.4174729 1.000000
-0.198373 0.332413 1.550342 0.88387595 -0.10686299 0.45534998 1.000000
-0.358682 0.085190 1.001754 0.98629618 -0.13314802 0.09742402 2.000000
-0.366601 0.085435 1.101607 0.98112314 -0.13786702 0.13561002 2.000000
-0.369783 0.086197 1.123391 0.92512894 -0.36555998 0.10248099 2.000000
-0.374048 0.086228 1.173104 0.91672005 -0.38808502 0.09494401 2.000000
-0.377290 0.086289 1.190940 0.9679413 -0.17160905 0.18341206 2.000000
-0.380861 0.086533 1.209207 0.9840128 -0.11072098 0.13949797 2.000000
-0.383539 0.086838 1.233098 0.98274246 -0.13735006 0.12390406 2.000000
-0.385660 0.093094 1.254996 0.97131633 -0.14365705 0.18949206 2.000000
-0.393037 0.093461 1.288669 0.97949183 -0.03190999 0.19894097 2.000000
-0.107355 0.324509 1.385472 0.90075287 -0.07823399 0.42722794 1.000000
-0.194688 0.254838 1.155597 0.18630805 -0.97528525 0.11877703 2.000000
-0.202463 0.189042 0.771405 0.55782204 -0.80985206 0.18158801 2.000000
-0.057161 0.166550 0.596774 -0.37816289 -0.86571475 0.3279189 2.000000
-0.056177 0.171280 0.605558 -0.244699 -0.82728901 0.505683 2.000000
-0.062684 0.172196 0.602027 -0.32455209 -0.87699024 0.3543361 2.000000
-0.169671 0.256425 1.087556 0.34757787 -0.92590264 0.14796594 2.000000
-0.299150 0.286606 1.561950 0.09740899 -0.99474188 0.031624 2.000000
-0.304849 0.286118 1.568152 0.18445706 -0.98073832 0.06424902 2.000000
-0.302499 0.289109 1.591825 -0.08604803 -0.95614635 0.2799641 2.000000
-0.438783 0.090592 1.553691 0.86489301 -0.102761 0.491325 2.000000
-0.448678 0.091385 1.570865 0.83419474 -0.21599393 0.50741084 2.000000
-0.286371 0.319687 1.680043 0.62192773 -0.6950867 0.36063884 1.000000
-0.291940 0.318925 1.688794 0.58847811 -0.73482014 0.33724306 1.000000
-0.462343 0.092179 1.633891 0.98713481 -0.000252 0.15988997 2.000000
-0.466035 0.092454 1.650945 0.95064045 0.01158801 0.31007815 2.000000
-0.471048 0.092606 1.662366 0.92362799 -0.008404 0.383198 2.000000
-0.475435 0.099106 1.673442 0.9622077 -0.03027999 0.27062792 2.000000
-0.486040 0.093583 1.726356 0.95315633 -0.13859605 0.26885709 2.000000
-0.490091 0.093857 1.739978 0.97623527 -0.07930602 0.20168106 2.000000
-0.492952 0.094102 1.761199 0.9850206 -0.16847093 0.03676899 2.000000
-0.495943 0.094498 1.859950 0.88603956 -0.42572027 0.18356512 2.000000
-0.500101 0.094742 1.873239 0.89005698 -0.40772899 0.203852 2.000000
-0.503328 0.094987 1.892293 0.95518609 -0.29572203 0.012962 2.000000
-0.500528 0.095048 1.988000 0.98418212 -0.17706902 -0.005667 2.000000
-0.503862 0.095261 2.006522 0.96494223 -0.10656703 0.23985406 2.000000
-0.511293 0.108231 2.034978 0.95133631 -0.10164503 0.29090809 2.000000
-0.516458 0.096055 2.046330 0.94025831 -0.10215403 0.32477511 2.000000
-0.520830 0.096360 2.057828 0.91713927 -0.02615001 0.39770812 2.000000
-0.525232 0.096665 2.067729 0.94216836 0.09103103 0.32254012 2.000000
-0.529169 0.096970 2.081754 0.9761534 0.13394506 0.17083107 2.000000
-0.533769 0.097275 2.136462 0.99320155 -0.01885699 0.11486995 1.000000
-0.537218 0.097489 2.151584 0.94868215 -0.08280301 0.30519805 1.000000
-0.541887 0.097794 2.161319 0.86369178 0.010113 0.50391887 1.000000
-0.552667 0.098282 2.177123 0.85207217 0.021168 0.52299611 1.000000
-0.561838 0.105210 2.192389 0.84649606 -0.060248 0.52897504 1.000000
-0.577577 0.099930 2.214129 0.82539346 -0.06756504 0.56050031 1.000000
-0.582605 0.100266 2.222463 0.88791569 -0.06570998 0.45528884 1.000000
-0.587259 0.100541 2.233525 0.93292657 0.01604001 0.35970922 1.000000
-0.591844 0.100815 2.245912 0.91900335 0.04031402 0.39218315 1.000000
-0.631227 0.103165 2.309539 0.80990797 -0.017861 0.58628498 1.000000
-0.636522 0.103562 2.317739 0.87537184 -0.11025998 0.47070891 1.000000
-0.641664 0.103959 2.329030 0.90280287 -0.15183898 0.40235794 1.000000
-0.646539 0.104447 2.340817 0.90198495 -0.14754599 0.40577498 1.000000
-0.655961 0.104996 2.358981 0.87130993 -0.10301899 0.47979796 1.000000
-0.660997 0.105179 2.368388 0.89470193 -0.06672999 0.44165096 1.000000
-0.327852 0.130082 0.934960 0.88005059 -0.38175882 0.28243787 2.000000
-0.321962 0.137223 0.925468 0.88523574 -0.36781089 0.28473292 2.000000
-0.332780 0.128281 0.950055 0.88700604 -0.42352202 0.18398201 2.000000
-0.336526 0.131211 0.976152 0.90554879 -0.37431391 0.19967595 2.000000
-0.337373 0.125901 0.969203 0.93100993 -0.33576698 0.14311199 2.000000
-0.340936 0.128953 0.993518 0.96269627 -0.20473806 0.17691305 2.000000
-0.060312 0.181656 0.621619 0.19782894 -0.79525075 0.57309682 2.000000
-0.054155 0.181779 0.619538 0.18008604 -0.73322114 0.65571013 2.000000
-0.053514 0.187546 0.625447 0.30518189 -0.69405575 0.65203576 2.000000
-0.130228 0.198868 0.667562 0.33411488 -0.73771973 0.58663178 2.000000
-0.255418 0.180863 0.811349 0.30220587 -0.9194256 0.25165089 2.000000
-0.227060 0.193436 0.840339 0.26768414 -0.94931449 0.16476408 2.000000
-0.154436 0.209458 0.738900 0.15488195 -0.98323066 0.09627597 2.000000
-0.246278 0.189957 0.838101 0.06012002 -0.91486835 0.39925115 2.000000
-0.251024 0.193619 0.847560 0.38284916 -0.87548737 0.29487012 2.000000
-0.252740 0.189438 0.837966 0.2973639 -0.90021471 0.3181009 2.000000
0.027594 0.196702 0.885631 -0.3805261 -0.91995725 0.09422603 2.000000
0.015090 0.202836 0.885310 -0.54143403 -0.83584705 0.09060301 2.000000
0.023314 0.200577 0.904851 -0.45586899 -0.88490298 0.095552 2.000000
0.011298 0.207139 0.907161 -0.46438477 -0.88051657 0.09506495 2.000000
0.030669 0.197800 0.918643 -0.4332622 -0.89506241 0.10558005 2.000000
-0.140108 0.243363 0.941484 0.37532586 -0.92522666 0.05555298 2.000000
-0.134653 0.244279 0.932653 0.26319709 -0.95007131 0.16760606 2.000000
-0.132287 0.247117 0.956513 0.2739489 -0.96038565 0.05110198 2.000000
-0.253648 0.280686 1.449140 0.41756889 -0.89636775 0.14886596 2.000000
-0.246789 0.286057 1.452605 0.51773285 -0.83980675 0.16333195 2.000000
-0.252222 0.285050 1.462081 0.45600316 -0.8521183 0.25681809 2.000000
-0.257890 0.284562 1.468564 0.31118602 -0.89770806 0.31190302 2.000000
-0.234796 0.299943 1.573953 0.33942308 -0.93843421 0.06429001 2.000000
-0.284166 0.274705 1.460958 0.35876203 -0.92772007 0.10307901 2.000000
-0.217447 0.297532 1.492808 0.08266702 -0.9896552 0.11725502 2.000000
-0.101900 0.267441 1.204478 -0.053336 -0.99483197 0.086398 2.000000
-0.156579 0.261429 1.090981 0.27138814 -0.95537248 0.11667006 2.000000
-0.152933 0.258591 1.064546 0.59042592 -0.7954139 0.13679898 2.000000
-0.150926 0.262009 1.084327 0.212579 -0.975568 0.055473 2.000000
-0.158197 0.257310 1.075910 0.47600298 -0.85342696 0.21232899 2.000000
-0.144189 0.257248 1.024835 0.31141801 -0.86504704 0.39333502 2.000000
-0.139116 0.252030 1.014855 0.28511806 -0.80973318 0.51287412 2.000000
-0.138162 0.257248 1.022273 0.22346901 -0.90512104 0.36168702 2.000000
-0.146089 0.246873 1.010013 0.29489508 -0.87254922 0.3894801 2.000000
-0.068757 0.245133 1.033870 0.57356905 -0.51758704 0.63491905 2.000000
-0.257791 0.232407 1.027719 0.424591 -0.903164 0.063382 2.000000
-0.252084 0.232926 1.021417 0.27938702 -0.93868008 0.20204602 2.000000
-0.250070 0.236344 1.041190 0.34648213 -0.93795036 0.01411601 2.000000
-0.254449 0.233658 1.062709 0.43805787 -0.89761774 -0.04886399 2.000000
-0.446290 0.155472 1.575202 0.9023099 -0.16418198 0.39859895 2.000000
-0.046686 0.217179 0.816526 -0.09001103 -0.99124538 0.09659504 2.000000
-0.040269 0.216508 0.818612 -0.21193006 -0.97363129 0.08442603 2.000000
-0.141267 0.204026 0.681575 0.62278382 -0.62452982 0.47127786 2.000000
-0.135530 0.204423 0.675868 0.47877672 -0.64690762 0.59353465 2.000000
-0.523263 0.025010 2.050004 0.97879486 0.05906399 0.19614297 2.000000
-0.179414 0.186875 0.684629 -0.09217404 -0.92780939 0.36148815 2.000000
-0.187158 0.182847 0.670972 0.01876301 -0.9321654 0.36154615 2.000000
-0.173135 0.186204 0.685269 -0.03233599 -0.92907277 0.36848091 2.000000
-0.322710 0.131577 0.921897 0.89800128 -0.40300213 0.17658706 2.000000
-0.295389 0.152939 0.800397 0.4133998 -0.53107274 0.73963664 2.000000
-0.295991 0.147263 0.796653 0.30804009 -0.48214614 0.82015023 2.000000
-0.289316 0.152817 0.798385 0.26895701 -0.45585802 0.84844304 2.000000
-0.301965 0.147202 0.799785 0.62401196 -0.49537297 0.60432996 2.000000
-0.289895 0.147050 0.795346 0.21877596 -0.49918691 0.83842084 2.000000
-0.037256 0.169449 0.606782 -0.11312503 -0.76458118 0.63452215 2.000000
-0.314561 0.166093 0.982328 0.69941408 -0.66854508 0.25272003 2.000000
-0.176897 0.196519 0.706187 0.35739299 -0.88629698 0.29452999 2.000000
-0.171030 0.196793 0.702266 0.24638707 -0.83711624 0.48839514 2.000000
-0.169847 0.201615 0.712045 0.38094398 -0.89879195 0.21692099 2.000000
-0.175294 0.200638 0.721164 0.41583804 -0.90037308 0.12809001 2.000000
-0.110849 0.217240 0.799577 0.01978501 -0.99569227 0.09058402 2.000000
-0.294649 0.231003 1.238448 0.33127708 -0.89667121 0.29366007 2.000000
-0.287233 0.235398 1.247340 0.21009108 -0.94230537 0.2606191 2.000000
-0.293153 0.235032 1.250020 0.27948406 -0.92025221 0.27390606 2.000000
-0.123926 0.315354 1.413993 0.76510976 -0.49381985 0.41321787 1.000000
-0.113641 0.311478 1.391936 0.81266542 -0.39721472 0.4263747 1.000000
-0.261659 0.308213 1.616946 0.27261108 -0.89800427 0.3453571 2.000000
-0.257127 0.303879 1.600821 0.31104884 -0.87951655 0.36013782 2.000000
-0.260446 0.312943 1.627631 0.35348107 -0.85233217 0.38546208 2.000000
-0.262987 0.303605 1.605197 0.28716897 -0.87281991 0.39461296 2.000000
-0.267610 0.308121 1.620490 0.14836599 -0.92437495 0.35145198 2.000000
-0.124650 0.309830 1.408671 0.73012313 -0.5481991 0.40791907 1.000000
-0.119119 0.310593 1.400527 0.73087302 -0.53313801 0.42613201 1.000000
-0.125452 0.304551 1.402236 0.62352394 -0.70652893 0.33471597 1.000000
-0.101854 0.331681 1.376233 0.83000411 -0.16263302 0.53352007 1.000000
-0.166063 0.295243 1.441163 0.06996702 -0.99722931 0.02526501 2.000000
-0.160417 0.295823 1.434335 0.197118 -0.97873901 0.056696 2.000000
-0.299173 0.282212 1.492553 0.54151007 -0.7882741 0.29221704 2.000000
-0.304079 0.281449 1.500854 0.63143405 -0.75070706 0.19424201 2.000000
-0.357294 0.091416 1.002671 0.95010228 -0.30475009 0.06658102 2.000000
-0.358247 0.091477 1.036082 0.95678318 -0.28769505 0.04239701 2.000000
-0.356912 0.097214 1.042867 0.97382815 -0.20557803 0.09693502 2.000000
-0.363214 0.091355 1.081004 0.96531938 -0.23408309 0.11560105 2.000000
-0.366029 0.091782 1.105302 0.95730203 -0.26630801 0.112485 2.000000
-0.368280 0.092118 1.129506 0.95068052 -0.29865085 0.08375096 2.000000
-0.370386 0.092087 1.155841 0.95708501 -0.27432 0.093471 2.000000
-0.373125 0.092240 1.177379 0.96718354 -0.18669391 0.17234092 2.000000
-0.376657 0.092454 1.192264 0.96488314 -0.16321602 0.20581803 2.000000
-0.380174 0.092728 1.210814 0.97140585 -0.19106997 0.14093598 2.000000
-0.382692 0.093003 1.235433 0.969039 -0.215672 0.120204 2.000000
-0.396936 0.093766 1.304908 0.97548461 0.02621299 0.21850091 2.000000
-0.295152 0.310898 1.659904 0.30698304 -0.94575211 0.10636901 2.000000
-0.182931 0.255265 1.147328 0.11367394 -0.9890415 0.09420795 2.000000
-0.174737 0.258378 1.166327 0.15541794 -0.9760666 0.15211594 2.000000
-0.180826 0.258530 1.167954 0.05476899 -0.96866277 0.24226594 2.000000
-0.233034 0.228043 0.960069 0.002426 -0.99856319 0.05353201 2.000000
-0.283830 0.146958 0.793298 0.41211697 -0.51656596 0.75054594 2.000000
-0.277986 0.147233 0.788713 0.59645311 -0.58323211 0.55143811 2.000000
-0.277254 0.152878 0.792197 0.57885122 -0.37158714 0.72584727 2.000000
-0.283227 0.152695 0.796079 0.42010922 -0.37258219 0.82746043 2.000000
-0.310762 0.285935 1.571706 0.135792 -0.97585897 0.17105499 2.000000
-0.308908 0.289750 1.589768 -0.081534 -0.95005202 0.30125301 2.000000
-0.433923 0.096421 1.542869 0.95218503 0.054768 0.30057301 2.000000
-0.443201 0.097092 1.564052 0.864217 -0.135862 0.484428 2.000000
-0.442941 0.103165 1.564433 0.87025156 -0.03937603 0.49103132 2.000000
-0.452821 0.097611 1.578841 0.83341852 0.11143594 0.54129069 2.000000
-0.462594 0.098405 1.632379 0.98806722 0.09362102 0.12230403 2.000000
-0.466180 0.104752 1.650895 0.96893235 0.02065301 0.24646209 2.000000
-0.470300 0.105027 1.662047 0.92520595 -0.0419 0.37714498 2.000000
-0.478860 0.099381 1.691463 0.98242227 -0.09709903 0.15943104 2.000000
-0.481630 0.099564 1.713149 0.96150388 -0.23284497 0.14592298 2.000000
-0.485254 0.099778 1.729030 0.91238107 -0.31198002 0.26500802 2.000000
-0.489496 0.100083 1.741431 0.96385403 -0.165657 0.20867001 2.000000
-0.491792 0.100327 1.805209 0.99276408 -0.11983301 -0.007716 2.000000
-0.491685 0.100449 1.845088 0.96996182 -0.23303396 0.06977999 2.000000
-0.494829 0.100663 1.864642 0.91953699 -0.338381 0.199875 2.000000
-0.498849 0.100907 1.878821 0.88914641 -0.42577019 0.16774508 2.000000
-0.501192 0.101151 1.903377 0.9303881 -0.36657604 -3.3e-05 2.000000
-0.499353 0.101151 1.953975 0.96594206 -0.25851102 -0.011313 2.000000
-0.500047 0.101304 1.988814 0.98984064 -0.11469296 0.08402997 2.000000
-0.503442 0.101517 2.006942 0.96870357 -0.06903204 0.23842814 2.000000
-0.520166 0.108780 2.058139 0.9005882 -0.08570602 0.42614009 2.000000
-0.525117 0.102891 2.066836 0.91666744 -0.010451 0.39951419 2.000000
-0.529352 0.103165 2.078818 0.98339295 0.046421 0.17545199 2.000000
-0.531801 0.103348 2.103456 0.99628336 0.03397201 0.07915403 2.000000
-0.533594 0.103470 2.135137 0.99364285 0.023637 0.11006898 1.000000
-0.537012 0.103684 2.150861 0.95034188 0.04550499 0.30786296 1.000000
-0.541757 0.103989 2.160321 0.85113284 0.15523797 0.5014719 1.000000
-0.547410 0.104142 2.168294 0.84425226 0.11748204 0.52291116 1.000000
-0.556917 0.111191 2.183406 0.86887483 0.07191099 0.48978091 1.000000
-0.566720 0.105515 2.200166 0.81792756 -0.08303396 0.5692977 1.000000
-0.577272 0.106186 2.214845 0.82347092 -0.12129099 0.55424195 1.000000
-0.582254 0.106492 2.223557 0.87920792 -0.16135899 0.44828196 1.000000
-0.586931 0.106736 2.233956 0.91291567 -0.05469498 0.40446685 1.000000
-0.596445 0.107194 2.255494 0.90280596 0.043974 0.42779398 1.000000
-0.601221 0.107560 2.264615 0.87166106 0.042557 0.48825803 1.000000
-0.605829 0.107865 2.272147 0.84833045 0.04179102 0.52781528 1.000000
-0.610559 0.108262 2.279462 0.8483828 0.05332299 0.52669088 1.000000
-0.620622 0.108811 2.295880 0.83719957 -0.02667199 0.54624672 1.000000
-0.630929 0.109360 2.310443 0.84419038 -0.20347909 0.49592223 1.000000
-0.636018 0.109727 2.319367 0.86992437 -0.2329311 0.43471219 1.000000
-0.644723 0.116501 2.341084 0.88476535 -0.15042306 0.44109317 1.000000
-0.660127 0.111252 2.368316 0.87458957 -0.13235794 0.46644877 1.000000
-0.670732 0.111771 2.389689 0.89196494 -0.09158999 0.44272997 1.000000
-0.167337 0.169449 0.621688 0.19124307 -0.92210732 0.33636912 2.000000
-0.162775 0.165360 0.605350 0.20022305 -0.94680726 0.25192607 2.000000
-0.161279 0.169419 0.617345 0.36617806 -0.87915714 0.30495305 2.000000
-0.181047 0.165696 0.610057 0.15602093 -0.96515355 0.2100859 2.000000
-0.186868 0.165482 0.614080 0.21785401 -0.95212106 0.21448801 2.000000
-0.229394 0.174058 0.750661 0.56358673 -0.81744562 0.11896494 2.000000
-0.222642 0.179032 0.761211 0.43184698 -0.89599296 0.103464 2.000000
-0.227884 0.177811 0.771146 0.46515408 -0.86923514 0.16751703 2.000000
-0.234537 0.172257 0.764318 0.59464794 -0.78777692 0.16062798 2.000000
-0.345247 0.164200 1.193423 0.77351805 -0.62648004 0.09587801 2.000000
-0.341028 0.166916 1.172807 0.77473401 -0.61746601 0.136099 2.000000
-0.036279 0.226090 0.925553 -0.48856402 -0.86394103 0.122111 2.000000
-0.043352 0.227921 0.915114 -0.38355312 -0.91714129 0.10834603 2.000000
-0.219858 0.242905 1.026181 -0.021175 -0.97696205 0.21236001 2.000000
-0.217355 0.245469 1.051578 -0.18815503 -0.98034216 0.05938801 2.000000
-0.149766 0.256516 1.032540 0.63747384 -0.75205782 0.16743996 2.000000
-0.150964 0.251786 1.022161 0.57211914 -0.75007618 0.33176108 2.000000
-0.263811 0.284348 1.472405 0.215673 -0.911059 0.351364 2.000000
-0.321420 0.242447 1.347098 0.59255214 -0.79452619 0.13270303 2.000000
-0.323053 0.238267 1.335320 0.62578677 -0.75214072 0.20657992 2.000000
-0.281572 0.252915 1.294873 0.46112007 -0.86280513 0.20720903 2.000000
-0.275979 0.253647 1.287183 0.45375978 -0.85494758 0.25132988 2.000000
-0.163904 0.256821 1.082026 0.30145987 -0.92282759 0.23981489 2.000000
-0.000467 0.241044 1.031598 -0.74993593 -0.62688294 0.21121998 2.000000
-0.286683 0.224198 1.194314 0.51971326 -0.82536242 0.22062411 2.000000
-0.280992 0.224625 1.186393 0.47130994 -0.82297889 0.31713196 2.000000
-0.206064 0.236344 0.976270 0.14064698 -0.98166088 0.12868698 2.000000
-0.203889 0.239487 0.997924 -0.04662398 -0.9897086 0.13528894 2.000000
-0.211740 0.235764 0.982856 0.29481084 -0.94851448 0.11578794 2.000000
-0.033525 0.228928 0.952098 -0.60690786 -0.76709982 0.20789595 2.000000
-0.211435 0.225083 0.924569 0.16031697 -0.93216281 0.32460893 2.000000
-0.052873 0.217454 0.817170 -0.07469203 -0.99358845 0.08487104 2.000000
-0.339197 0.143509 1.067250 0.82767582 -0.56118488 -0.004926 2.000000
-0.341478 0.141221 1.038669 0.87270618 -0.4882251 -0.004491 2.000000
-0.096467 0.165574 0.577973 -0.13464398 -0.92542989 0.35418996 2.000000
-0.089136 0.170060 0.586881 -0.04324899 -0.90581376 0.42146289 2.000000
-0.102991 0.166398 0.575261 -0.19998397 -0.94657488 0.25298697 2.000000
-0.273500 0.142991 0.773780 0.58497718 -0.74427523 0.3222671 2.000000
-0.259820 0.153855 0.777576 0.56886015 -0.7425782 0.35351909 2.000000
-0.265634 0.153458 0.782622 0.49387299 -0.69497799 0.52258499 2.000000
-0.415475 0.079514 1.428718 0.98864909 -0.08257401 0.12551701 2.000000
-0.413003 0.095536 1.448060 0.83707901 -0.546791 0.017842 2.000000
-0.164072 0.202073 0.706994 0.28007991 -0.88677073 0.36768589 2.000000
-0.099061 0.227952 0.853164 -0.24042405 -0.95375721 0.18039804 2.000000
-0.105638 0.228867 0.849305 -0.21135097 -0.94748884 0.23999096 2.000000
-0.227769 0.277238 1.325601 0.16023394 -0.98272663 0.09259297 2.000000
-0.225130 0.279679 1.352992 0.23466811 -0.96616046 0.10707405 2.000000
-0.233423 0.276658 1.332366 0.21838005 -0.97333722 0.07017702 2.000000
-0.184061 0.288102 1.319015 0.21971099 -0.96070394 0.16963199 2.000000
-0.296380 0.264664 1.401252 0.48879113 -0.86723523 0.09479603 2.000000
-0.144388 0.288865 1.341481 0.02382601 -0.97124645 0.23688111 2.000000
-0.216966 0.262223 1.248321 -0.2627531 -0.94554538 0.19210608 2.000000
-0.210153 0.260850 1.254968 -0.30721584 -0.92738253 0.21349489 2.000000
-0.215234 0.266068 1.264939 -0.24349107 -0.92949825 0.27702907 2.000000
-0.223337 0.262833 1.246699 0.007894 -0.98094169 0.19414194 2.000000
-0.247751 0.277329 1.379891 0.2179511 -0.96705946 0.13150406 2.000000
-0.199960 0.284562 1.351762 0.35172088 -0.92402869 0.14987795 2.000000
-0.205690 0.284073 1.357739 0.202871 -0.94045302 0.27274801 2.000000
-0.210565 0.288987 1.369868 0.25769599 -0.82974795 0.49508697 2.000000
-0.204523 0.288956 1.367570 0.20129889 -0.84119054 0.50187372 2.000000
-0.216470 0.288865 1.373635 0.40034893 -0.81069587 0.42719193 2.000000
-0.259431 0.318131 1.635306 0.5182762 -0.72107727 0.45982317 1.000000
-0.263521 0.328324 1.654740 0.6783527 -0.55849575 0.47740979 1.000000
-0.264131 0.322861 1.648046 0.55116509 -0.72268512 0.41706507 1.000000
-0.261560 0.372330 1.653577 0.88707241 0.07532604 0.45544321 1.000000
-0.362344 0.097733 1.088168 0.94581527 -0.31037909 0.09538503 2.000000
-0.376123 0.098710 1.195317 0.95575466 -0.23520892 0.17666294 2.000000
-0.379060 0.098954 1.215896 0.95026957 -0.28766387 0.11931995 2.000000
-0.381700 0.099167 1.238955 0.95901632 -0.24409408 0.14389505 2.000000
-0.385049 0.099320 1.257003 0.95880239 -0.18164407 0.21841109 2.000000
-0.392885 0.099717 1.288920 0.96338415 -0.11711502 0.24119504 2.000000
-0.396730 0.099961 1.303756 0.97197804 -0.035465 0.23238101 2.000000
-0.400270 0.100266 1.319951 0.9835857 -0.06156798 0.16961295 2.000000
-0.186983 0.258805 1.168996 0.11180299 -0.96696488 0.22908297 2.000000
-0.271417 0.153153 0.786637 0.5538078 -0.49016382 0.67307975 2.000000
-0.292985 0.169175 0.817483 0.6253832 -0.77211825 0.11282404 2.000000
-0.425073 0.102341 1.518846 0.762881 -0.334002 0.553584 2.000000
-0.429513 0.102433 1.528869 0.93458184 -0.06955199 0.34888294 2.000000
-0.438020 0.102952 1.553966 0.93189288 0.032884 0.36123995 2.000000
-0.447961 0.103409 1.571469 0.76908173 0.13512395 0.62470378 2.000000
-0.452661 0.110062 1.574702 0.76595922 0.16688405 0.62085118 2.000000
-0.457170 0.104172 1.583602 0.93178768 0.21038893 0.2958179 2.000000
-0.466249 0.110947 1.650256 0.98610498 0.085232 0.142592 2.000000
-0.474863 0.105301 1.673125 0.95905863 -0.15912094 0.23427991 2.000000
-0.478082 0.105607 1.693765 0.94862575 -0.29908792 0.10322597 2.000000
-0.480279 0.105790 1.718926 0.91252787 -0.38063395 0.14970198 2.000000
-0.484018 0.106003 1.734344 0.84254366 -0.46052681 0.27934789 2.000000
-0.488580 0.106278 1.744819 0.89990521 -0.31530207 0.30125607 2.000000
-0.492120 0.106492 1.761916 0.99698119 -0.07233701 0.02821101 2.000000
-0.490953 0.106614 1.847451 0.99303292 -0.11747199 0.009271 2.000000
-0.493600 0.106888 1.870151 0.9195143 -0.36103612 0.15539105 2.000000
-0.496904 0.107102 1.888705 0.89468977 -0.43735689 0.09082498 2.000000
-0.498414 0.107224 1.918509 0.94816501 -0.317758 0.0036 2.000000
-0.498117 0.107316 1.959483 0.98801831 -0.15312505 0.01930101 2.000000
-0.499582 0.107468 1.989573 0.99219943 -0.06900803 0.10381804 2.000000
-0.503107 0.107712 2.006774 0.9624954 -0.06899903 0.26237711 2.000000
-0.515542 0.108536 2.048228 0.92734219 -0.11374102 0.35651007 2.000000
-0.524881 0.109086 2.066794 0.90117148 -0.08444704 0.42515722 2.000000
-0.529260 0.109360 2.078229 0.97581192 -0.064597 0.20884998 2.000000
-0.531770 0.109543 2.101701 0.99697423 -0.009187 0.07718802 2.000000
-0.533594 0.115922 2.131333 0.99273857 -0.001286 0.12028495 1.000000
-0.537065 0.109910 2.149014 0.95535843 0.10246805 0.27711112 1.000000
-0.561403 0.111436 2.192210 0.90105195 0.022904 0.43310598 1.000000
-0.576776 0.112412 2.215934 0.83059676 -0.15922795 0.53362485 1.000000
-0.581628 0.112748 2.225173 0.87212915 -0.20402104 0.44470908 1.000000
-0.586366 0.112992 2.235007 0.87954236 -0.13480905 0.45632418 1.000000
-0.591340 0.113267 2.244176 0.87786023 0.009678 0.47881912 1.000000
-0.601114 0.113694 2.263497 0.87564125 0.08553102 0.47532814 1.000000
-0.605668 0.114030 2.271068 0.8467545 0.08151005 0.52570231 1.000000
-0.610185 0.114426 2.277995 0.85663129 0.04594602 0.51387917 1.000000
-0.620279 0.115006 2.296157 0.86121848 -0.10741006 0.49675528 1.000000
-0.649347 0.116746 2.350310 0.87338469 -0.13422095 0.46817083 1.000000
-0.653825 0.123337 2.360734 0.87834242 -0.09905205 0.46765723 1.000000
-0.664461 0.123978 2.380099 0.87810282 -0.10115098 0.4676579 1.000000
-0.066041 0.164536 0.569621 -0.39393789 -0.90087474 0.18231195 2.000000
-0.058908 0.162644 0.580037 -0.3767011 -0.91183125 0.16327905 2.000000
-0.176652 0.161637 0.592616 0.10134202 -0.95788323 0.26868106 2.000000
-0.233293 0.176804 0.778665 0.4390639 -0.85087981 0.28848994 2.000000
-0.258027 0.223221 0.952729 0.61009103 -0.78875503 0.075196 2.000000
-0.130052 0.239823 0.917230 0.13194594 -0.95214255 0.27570787 2.000000
-0.123964 0.239731 0.915362 0.02891899 -0.97664464 0.21290592 2.000000
-0.016832 0.241471 0.990933 -0.86044092 -0.18480598 0.47485595 2.000000
-0.126611 0.247666 0.950000 0.00474 -0.99519647 0.09778305 2.000000
-0.226144 0.243302 1.025762 -0.05432602 -0.93350231 0.35443212 2.000000
-0.303697 0.233048 1.265059 0.58404895 -0.79888593 0.14376399 2.000000
-0.298700 0.234299 1.254516 0.45911272 -0.86303847 0.21066587 2.000000
-0.317445 0.239152 1.325158 0.52910588 -0.79631582 0.29313493 2.000000
-0.270395 0.254502 1.278689 0.54353267 -0.80102251 0.25086885 2.000000
-0.376031 0.264481 1.626655 0.48377713 -0.86328623 0.14386304 2.000000
-0.359796 0.205735 1.355773 0.79997194 -0.58613696 0.12840699 2.000000
-0.092805 0.237717 0.915307 0.008111 -0.99612024 0.08762802 2.000000
-0.086679 0.237626 0.913732 -0.017668 -0.99347525 0.11267103 2.000000
-0.101167 0.235001 0.893952 -0.18937502 -0.97227109 0.13720801 2.000000
-0.169008 0.231095 0.906613 0.20990505 -0.8932232 0.39760809 2.000000
-0.190629 0.209702 0.887397 0.14586105 -0.87354731 0.46437016 2.000000
-0.249589 0.180405 0.807447 0.13608395 -0.95617067 0.25926591 2.000000
-0.243539 0.180222 0.802857 0.24511291 -0.94288064 0.22560091 2.000000
-0.241754 0.184495 0.822194 0.22965103 -0.94701112 0.22456703 2.000000
-0.247629 0.184891 0.825130 0.05132902 -0.95493132 0.2923551 2.000000
-0.344255 0.134873 1.087626 0.89768106 -0.43985503 0.026387 2.000000
-0.078538 0.182725 0.627517 0.013902 -0.92264576 0.3853979 2.000000
-0.109498 0.167008 0.572433 -0.10581599 -0.98187791 0.15722199 2.000000
-0.072725 0.165635 0.564555 -0.12066301 -0.97415706 0.19094101 2.000000
-0.299180 0.159623 0.890533 0.75847542 -0.65146036 -0.01773201 2.000000
-0.302293 0.158036 0.857930 0.74592992 -0.66579293 -0.017559 2.000000
-0.296709 0.165543 0.846789 0.775671 -0.630932 -0.016103 2.000000
-0.129579 0.204545 0.672429 0.30331901 -0.67054502 0.67702803 2.000000
-0.273439 0.218186 1.001719 0.44149197 -0.85633593 0.26790598 2.000000
-0.271730 0.222062 1.017715 0.49007099 -0.86589198 0.100307 2.000000
-0.031793 0.257218 1.156325 -0.22671594 -0.96162077 0.15454896 2.000000
-0.027193 0.252762 1.141028 -0.30436014 -0.93303043 0.19188309 2.000000
-0.025453 0.256638 1.157584 -0.121298 -0.973365 0.194544 2.000000
-0.034357 0.254746 1.130128 -0.43933483 -0.88931465 0.12690295 2.000000
-0.288484 0.247513 1.288575 0.48853728 -0.84907448 0.20100711 2.000000
-0.283029 0.248215 1.281552 0.41204008 -0.86711017 0.27989806 2.000000
-0.049272 0.259568 1.101922 -0.2358241 -0.97179243 -0.002544 2.000000
-0.044702 0.258683 1.151286 -0.20444094 -0.97712773 0.05852598 2.000000
-0.051485 0.259995 1.145017 -0.23059595 -0.97234081 0.03713299 2.000000
-0.148080 0.260514 1.048480 0.43886293 -0.89417485 0.08860399 2.000000
-0.046846 0.255204 0.996038 0.19032898 -0.92145991 0.33865397 2.000000
-0.052705 0.254990 1.000442 0.55668507 -0.7820341 0.28022204 2.000000
-0.082925 0.265305 1.074433 -0.18677395 -0.97347576 0.13213797 2.000000
-0.077081 0.266160 1.202867 0.009781 -0.99668453 0.08077296 2.000000
-0.069398 0.270157 1.216016 0.001797 -0.94938391 0.31411297 2.000000
-0.055612 0.273636 1.227542 -0.09080901 -0.91110212 0.40205305 2.000000
-0.049303 0.273331 1.228295 -0.07246496 -0.91195252 0.40384579 2.000000
-0.315622 0.256852 1.464999 0.62106489 -0.73969887 0.25908296 2.000000
-0.105066 0.269242 1.102382 0.04040701 -0.99866725 -0.03210901 2.000000
-0.110368 0.268021 1.113408 0.12668504 -0.99121727 -0.03793701 2.000000
-0.201478 0.269974 1.276168 0.26191005 -0.79301116 0.55003311 2.000000
-0.202310 0.264603 1.269954 0.12739496 -0.85830074 0.49708185 2.000000
-0.195535 0.270096 1.272473 0.47874213 -0.7267102 0.49264414 2.000000
-0.253000 0.324143 1.634618 0.70703212 -0.50441608 0.49565108 1.000000
-0.176095 0.349564 1.507390 0.88880301 0.024049 0.45765801 1.000000
-0.175332 0.374741 1.506133 0.855957 0.090546 0.509057 1.000000
-0.180681 0.373795 1.515620 0.85540879 0.12955197 0.50148988 1.000000
-0.375001 0.105027 1.201283 0.93005158 -0.34367484 0.12996794 2.000000
-0.377649 0.105179 1.222613 0.93436672 -0.3324459 0.12821296 2.000000
-0.380655 0.105363 1.242261 0.94272641 -0.28470812 0.17380508 2.000000
-0.388238 0.105973 1.275331 0.94342779 -0.21818895 0.24967495 2.000000
-0.396303 0.106339 1.304210 0.95632763 -0.16543594 0.24097391 2.000000
-0.399621 0.106644 1.322227 0.96191918 -0.24259505 0.12593302 2.000000
-0.401864 0.106858 1.347466 0.92797709 -0.36555804 0.07229001 2.000000
-0.401521 0.112931 1.381402 0.92897813 -0.36705905 0.04761601 2.000000
-0.281953 0.164322 0.800324 0.42922495 -0.62978893 0.64740393 2.000000
-0.418168 0.108658 1.518685 -0.13879297 -0.25421195 0.95713781 2.000000
-0.424669 0.108506 1.520728 0.62417366 -0.22523388 0.74811559 2.000000
-0.429010 0.108597 1.528489 0.91724697 -0.034901 0.39678699 2.000000
-0.437730 0.109116 1.552302 0.93709211 0.029775 0.34781004 2.000000
-0.442636 0.109421 1.562921 0.86917703 0.106475 0.48290202 2.000000
-0.463846 0.110581 1.625751 0.98696272 0.13747996 0.08368898 2.000000
-0.469942 0.111252 1.662446 0.94298111 -0.12539102 0.30832404 2.000000
-0.473962 0.111466 1.676320 0.94184155 -0.28427487 0.17922692 2.000000
-0.472627 0.117753 1.683770 0.93931126 -0.32936809 0.09597403 2.000000
-0.478532 0.111954 1.727229 0.91028425 -0.39548811 0.12235903 2.000000
-0.482698 0.112198 1.740092 0.82064732 -0.44070417 0.36375514 2.000000
-0.487657 0.112412 1.748399 0.87541941 -0.30190114 0.37748717 2.000000
-0.491693 0.112687 1.762364 0.99520902 -0.086631 0.045322 2.000000
-0.491311 0.112809 1.803863 0.99012869 -0.13849096 -0.02157399 2.000000
-0.488862 0.119004 1.856107 0.98853129 -0.15058704 0.011377 2.000000
-0.492090 0.112992 1.877391 0.95457133 -0.2752941 0.11404704 2.000000
-0.494905 0.113206 1.898953 0.94495786 -0.31380795 0.09262399 2.000000
-0.496774 0.113389 1.926526 0.97906093 -0.19930299 0.041449 2.000000
-0.497728 0.113541 1.959725 0.99877863 -0.02215399 0.04416398 2.000000
-0.499208 0.113694 1.989675 0.99313589 -0.019778 0.11528199 2.000000
-0.509981 0.133072 2.036273 0.95803827 -0.05852002 0.28060308 2.000000
-0.510873 0.114457 2.035649 0.95676895 -0.080732 0.27941998 2.000000
-0.519746 0.115006 2.058999 0.89046849 -0.15337709 0.42841724 2.000000
-0.524515 0.115311 2.067775 0.90736629 -0.16075405 0.38838712 2.000000
-0.528833 0.115525 2.079902 0.96698975 -0.17211096 0.18790595 2.000000
-0.531442 0.115769 2.103021 0.99005925 -0.10365503 0.09507002 2.000000
-0.537393 0.115983 2.147126 0.93207199 0.119444 0.342016 1.000000
-0.541971 0.116318 2.156081 0.86304693 0.16112099 0.47873796 1.000000
-0.547304 0.116685 2.164136 0.83465399 0.160311 0.52692799 1.000000
-0.552110 0.117051 2.172385 0.87604313 0.11169902 0.46911807 1.000000
-0.565858 0.117905 2.200967 0.84951928 -0.09919403 0.51814817 1.000000
-0.576127 0.118607 2.217101 0.84420906 -0.14276101 0.51665304 1.000000
-0.580530 0.125016 2.226546 0.85758983 -0.05446899 0.5114419 1.000000
-0.600877 0.119919 2.261706 0.88720494 0.11746099 0.44617297 1.000000
-0.605195 0.126542 2.268231 0.86665902 0.06492 0.49465901 1.000000
-0.609926 0.120621 2.276696 0.87762023 0.017415 0.47904013 1.000000
-0.614702 0.120865 2.286147 0.90203707 -0.07949201 0.42427603 1.000000
-0.619844 0.127366 2.298059 0.87764936 -0.09500004 0.4697942 1.000000
-0.630357 0.121781 2.315427 0.86147103 -0.156979 0.48293401 1.000000
-0.639726 0.122330 2.333442 0.87394192 -0.17558698 0.45320496 1.000000
-0.669176 0.130417 2.389607 0.87127269 -0.04977398 0.48826883 1.000000
-0.223588 0.391709 1.587789 0.90416969 -0.08463697 0.41870486 1.000000
-0.001756 0.161820 0.598310 -0.40325282 -0.64872872 0.64539772 2.000000
0.004515 0.155869 0.597840 -0.5179279 -0.62654787 0.58239888 2.000000
0.004386 0.161027 0.602809 -0.5857849 -0.6047339 0.53958591 2.000000
-0.001848 0.156785 0.594037 -0.39371419 -0.6343033 0.66531832 2.000000
-0.008516 0.157426 0.591613 -0.27402607 -0.71220017 0.64628216 2.000000
-0.052209 0.161484 0.585387 -0.15081498 -0.96887988 0.19628198 2.000000
-0.026987 0.158555 0.589597 -0.25442395 -0.92308184 0.28842395 2.000000
-0.268030 0.143906 0.763963 0.61051209 -0.76442611 0.20719003 2.000000
-0.313386 0.139451 0.815211 0.88120222 -0.4244491 0.20814805 2.000000
-0.316713 0.186814 1.153419 0.74604799 -0.66281699 0.063922 2.000000
-0.314737 0.186600 1.110057 0.76959774 -0.63724079 0.04053999 2.000000
-0.308679 0.193162 1.106507 0.68774891 -0.7250629 0.03585 2.000000
-0.007905 0.212906 0.966243 -0.42110899 -0.90488899 0.061993 2.000000
-0.004373 0.213761 1.003900 -0.47482512 -0.85509021 0.20823505 2.000000
-0.324953 0.210831 1.259988 0.59134309 -0.76397511 0.25817704 2.000000
-0.320291 0.206833 1.238416 0.78441239 -0.56071528 0.26513313 2.000000
-0.319513 0.211869 1.247945 0.67473394 -0.70581594 0.21577298 2.000000
-0.325960 0.205674 1.251111 0.73292412 -0.5721441 0.36806706 2.000000
-0.210870 0.251755 1.184934 0.32090914 -0.92969141 0.18080708 2.000000
-0.123407 0.276810 1.237344 -0.12918102 -0.98156817 0.14084102 2.000000
-0.244234 0.274735 1.352088 0.3265979 -0.94220771 0.07468898 2.000000
-0.367242 0.273148 1.642364 0.59245898 -0.79046297 0.15543699 2.000000
-0.046617 0.265397 1.194457 -0.06507103 -0.9826415 0.17372809 2.000000
-0.038392 0.268448 1.213893 -0.04764498 -0.97172061 0.23127691 2.000000
-0.370454 0.196366 1.383246 0.83129278 -0.54171286 0.12449697 2.000000
-0.128206 0.233079 0.873305 0.23153597 -0.96245586 0.14166798 2.000000
-0.166971 0.210618 0.872281 0.79457345 -0.5326803 0.29138416 2.000000
-0.163080 0.207322 0.848632 0.85065107 -0.52309804 0.052547 2.000000
-0.203645 0.201279 0.819472 0.16769193 -0.98448156 0.05172498 2.000000
-0.070558 0.192765 0.640805 0.32359313 -0.79210433 0.51755021 2.000000
-0.069551 0.197953 0.649110 0.28653597 -0.86284792 0.41640196 2.000000
-0.083566 0.187668 0.639100 0.19401898 -0.88015891 0.43321696 2.000000
-0.290521 0.141282 0.791831 0.32891703 -0.49548805 0.80393108 2.000000
-0.284601 0.141434 0.788728 0.49599401 -0.60748901 0.62044101 2.000000
-0.033372 0.160081 0.586701 -0.2664031 -0.93597037 0.23019309 2.000000
-0.031923 0.163865 0.600862 -0.18780294 -0.88358073 0.42896987 2.000000
-0.078737 0.165665 0.567145 0.11832698 -0.97864987 0.16805698 2.000000
-0.305749 0.153733 0.890279 0.70653534 -0.70759234 0.01099501 2.000000
-0.297067 0.162888 0.911483 0.78229491 -0.61689593 0.08633699 2.000000
-0.298990 0.162552 0.823958 0.78795713 -0.6134091 0.05341201 2.000000
-0.292253 0.171647 0.891444 0.90479469 -0.42357985 0.04389398 2.000000
-0.290880 0.172471 0.837768 0.67315101 -0.73852601 0.03804 2.000000
-0.288621 0.175583 0.861322 0.72772995 -0.68100395 0.08150299 2.000000
-0.322450 0.172318 1.036201 0.92249581 -0.38257392 0.05136799 2.000000
-0.318620 0.176011 1.007493 0.87886735 -0.45179618 0.15320706 2.000000
-0.317392 0.180558 1.019629 0.81861838 -0.56961526 0.07350103 2.000000
-0.267908 0.218827 0.992698 0.5491179 -0.81917085 0.16561597 2.000000
-0.104608 0.237473 0.922807 -0.11202105 -0.9930624 0.03575401 2.000000
-0.098764 0.237626 0.918578 0.053516 -0.99805592 0.031944 2.000000
-0.097635 0.246171 0.993049 -0.49246001 -0.75910002 0.42573501 2.000000
-0.104181 0.247086 0.989364 -0.41134195 -0.76803891 0.49082994 2.000000
-0.314973 0.207810 1.223872 0.75043378 -0.62070981 0.22708693 2.000000
-0.313974 0.213151 1.234015 0.73347495 -0.63305196 0.24750698 2.000000
-0.024217 0.243546 0.979419 -0.78304402 -0.35819601 0.50846601 2.000000
-0.332101 0.222916 1.311887 0.76029437 -0.60474229 0.23714812 2.000000
-0.327623 0.219040 1.294305 0.57777072 -0.75617663 0.30720985 2.000000
-0.325365 0.228654 1.311545 0.50731483 -0.78904873 0.34645888 2.000000
-0.330926 0.227738 1.322225 0.68264922 -0.70159823 0.20432807 2.000000
-0.335809 0.225937 1.336381 0.74800717 -0.63232414 0.20162205 2.000000
-0.200311 0.254166 1.162801 0.33338005 -0.93728613 0.10174701 2.000000
-0.275262 0.224991 1.179805 0.45701404 -0.80654907 0.37498903 2.000000
-0.268518 0.230546 1.181705 0.39481791 -0.83113981 0.39156791 2.000000
-0.162225 0.260850 1.097928 0.27547699 -0.95876595 0.069859 2.000000
-0.282770 0.279130 1.472770 0.34182886 -0.84995266 0.40091584 2.000000
-0.276926 0.279435 1.468516 0.30063492 -0.90680477 0.29550593 2.000000
-0.332406 0.289139 1.607926 0.57917065 -0.76069455 0.29309582 2.000000
-0.339487 0.283768 1.608016 0.61943689 -0.71375587 0.32687994 2.000000
-0.257699 0.334977 1.649030 0.86838957 -0.13098694 0.47826977 1.000000
-0.263215 0.334000 1.658357 0.8153373 -0.25582909 0.51940019 1.000000
-0.262765 0.352707 1.658963 0.87816252 0.01402599 0.47815674 1.000000
-0.379594 0.111466 1.245301 0.92803421 -0.29862707 0.22265305 2.000000
-0.395433 0.112656 1.306514 0.94944021 -0.26437606 0.16931804 2.000000
-0.398195 0.112870 1.328607 0.93432143 -0.34828316 0.07577803 2.000000
-0.399377 0.112870 1.357026 0.91790213 -0.39293206 0.05531801 2.000000
-0.401254 0.113053 1.422198 0.93665638 -0.35024914 -0.000604 2.000000
-0.401788 0.113175 1.458062 0.94745699 -0.319862 0.003683 2.000000
-0.403482 0.106980 1.449744 0.9737532 -0.22558505 -0.03026701 2.000000
-0.417215 0.114701 1.518388 -0.39256802 0.27474001 0.87772904 2.000000
-0.424356 0.114915 1.520576 0.55125117 0.06875902 0.83150126 2.000000
-0.437524 0.115372 1.549970 0.91960914 0.04124801 0.39066306 2.000000
-0.442300 0.115677 1.560430 0.87756065 0.10118196 0.46866781 2.000000
-0.447175 0.115952 1.567916 0.78853923 0.09722703 0.60725018 2.000000
-0.452409 0.116288 1.573518 0.77244497 0.03313 0.63421698 2.000000
-0.290971 0.324235 1.695043 0.69858708 -0.55393506 0.45291505 1.000000
-0.466272 0.117142 1.649121 0.99468555 0.008193 0.10263295 2.000000
-0.469522 0.117417 1.664577 0.96233183 -0.17389597 0.20899196 2.000000
-0.474519 0.117905 1.711328 0.94674077 -0.31048492 0.08532898 2.000000
-0.477151 0.118088 1.733371 0.92895193 -0.30570898 0.20878298 2.000000
-0.481698 0.118363 1.744054 0.82425294 -0.31081898 0.47328496 2.000000
-0.486879 0.118638 1.750966 0.87340321 -0.25574806 0.4144391 2.000000
-0.491060 0.118912 1.764121 0.98414621 -0.16862704 0.05496501 2.000000
-0.488893 0.125138 1.814557 0.99030013 -0.13735602 -0.020952 2.000000
-0.491365 0.119218 1.879663 0.99092967 -0.06384398 0.11824696 2.000000
-0.494104 0.119401 1.901807 0.99462303 -0.035607 0.097248 2.000000
-0.496271 0.119584 1.927468 0.99800527 -0.02991101 0.05559502 2.000000
-0.499200 0.126114 1.985452 0.99728888 0.002791 0.07353299 2.000000
-0.502267 0.120133 2.007821 0.96404964 -0.07620397 0.2545609 2.000000
-0.514329 0.127183 2.050851 0.94350575 -0.09734097 0.31673592 2.000000
-0.524003 0.121506 2.069829 0.91444045 -0.2087291 0.34674317 2.000000
-0.530908 0.121995 2.106614 0.98586352 -0.12832607 0.10772906 1.000000
-0.533594 0.122147 2.131207 0.98204193 -0.004421 0.18861099 1.000000
-0.537607 0.128678 2.143287 0.92742825 0.09415602 0.3619551 1.000000
-0.542200 0.128953 2.152694 0.88017202 0.074511 0.46877001 1.000000
-0.551919 0.123276 2.171170 0.88698515 -0.012852 0.46161908 1.000000
-0.556245 0.123551 2.179696 0.90990123 0.006367 0.4147761 1.000000
-0.565416 0.124131 2.200934 0.90789106 -0.010644 0.41907103 1.000000
-0.570474 0.124436 2.210216 0.84573248 -0.11502007 0.5210633 1.000000
-0.570138 0.130631 2.210723 0.86153733 -0.02697301 0.5069772 1.000000
-0.590616 0.125565 2.243091 0.85779912 -0.019578 0.51361207 1.000000
-0.604959 0.132859 2.267591 0.86968783 -0.02635799 0.4928979 1.000000
-0.609750 0.126816 2.276469 0.89252426 -0.03516801 0.44962613 1.000000
-0.624978 0.127610 2.306907 0.85602516 -0.007122 0.5168851 1.000000
-0.629938 0.127915 2.315789 0.88691964 -0.01855799 0.46155081 1.000000
-0.639474 0.128525 2.334346 0.87982128 -0.07121602 0.46993915 1.000000
-0.648858 0.129105 2.351350 0.87851234 -0.05884002 0.47408218 1.000000
-0.653718 0.129441 2.360951 0.88709932 0.03552901 0.46020917 1.000000
-0.659067 0.129655 2.371003 0.87911511 -0.034364 0.47536906 1.000000
-0.111597 0.100724 0.403886 0.75109084 -0.59302387 0.29014694 2.000000
-0.106729 0.100297 0.394017 0.73593686 -0.4928899 0.46417291 2.000000
-0.115694 0.101731 0.422013 0.62843113 -0.75857016 0.17217904 2.000000
-0.063348 0.245896 1.025172 0.84407365 -0.4692868 0.25944089 2.000000
-0.009500 0.239060 1.004338 -0.86403811 -0.26794603 0.42619605 2.000000
-0.001764 0.236588 1.019429 -0.85237384 -0.39137992 0.34681493 2.000000
-0.079561 0.225480 0.862256 -0.13589094 -0.96637857 0.2182799 2.000000
-0.073244 0.224961 0.863074 -0.08405399 -0.96924587 0.23129497 2.000000
-0.077943 0.229539 0.877461 -0.07039202 -0.96633331 0.24747708 2.000000
-0.216348 0.195298 0.818347 0.44969798 -0.88978097 0.077856 2.000000
-0.272317 0.147782 0.782006 0.61674384 -0.66566282 0.42014289 2.000000
-0.151338 0.166398 0.592938 0.35273382 -0.89338853 0.27827285 2.000000
-0.257738 0.198105 0.908408 0.4053189 -0.86369778 0.29957092 2.000000
-0.252748 0.199113 0.895326 0.57049691 -0.81190486 0.12386998 2.000000
-0.251069 0.202836 0.908505 0.54847972 -0.7916536 0.26917386 2.000000
-0.310724 0.189774 1.086255 0.74609705 -0.66548305 0.021714 2.000000
-0.375581 0.171219 1.339734 0.85506315 -0.46284208 0.23376104 2.000000
-0.376436 0.165818 1.333957 0.91315331 -0.35147512 0.20643707 2.000000
0.031081 0.207322 0.984700 -0.36081607 -0.91306319 0.19007204 2.000000
