-0.092627 -0.301097 -0.048958 0.3070909 0.94327568 0.12619896 2.000000
-0.086142 -0.302653 -0.055313 0.34837206 0.92842817 0.12906602 2.000000
-0.079749 -0.303844 -0.060341 0.29345683 0.93660947 0.19143089 2.000000
-0.061400 -0.307078 -0.067021 0.18507595 0.96476076 0.18703895 2.000000
-0.055083 -0.307780 -0.069008 0.12164301 0.97543406 0.18366101 2.000000
-0.048789 -0.308177 -0.070843 0.05053301 0.98070219 0.18886404 2.000000
-0.042678 -0.308086 -0.069630 -0.12395398 0.96299181 0.23933695 2.000000
-0.036635 -0.307597 -0.065506 -0.24468186 0.92559745 0.28879083 2.000000
-0.031172 -0.311351 -0.050286 -0.10210497 0.96090873 0.25734993 2.000000
-0.011977 -0.307872 -0.056435 -0.06265001 0.95259715 0.29771405 2.000000
-0.005851 -0.307902 -0.054642 -0.11141097 0.95240976 0.28373093 2.000000
0.012239 -0.306529 -0.042843 -0.37419806 0.89658814 0.23686604 2.000000
0.018190 -0.305583 -0.035012 -0.43438514 0.87042327 0.23167407 2.000000
0.024118 -0.304484 -0.026112 -0.43947722 0.86092244 0.25626613 2.000000
0.030298 -0.304118 -0.020226 -0.26473302 0.87994607 0.39447603 2.000000
0.036538 -0.304729 -0.018212 -0.12945397 0.84291279 0.52224487 2.000000
0.065202 -0.370311 0.552841 -0.66356772 0.69369071 0.28012688 2.000000
0.226953 -0.191508 0.696636 0.85532705 -0.019561 0.51771903 1.000000
0.234811 -0.194591 0.682254 0.8871784 -0.04675002 0.45905221 1.000000
0.249696 -0.200450 0.653595 0.84199126 -0.04753201 0.53739317 1.000000
0.730623 0.329762 -0.163285 0.7989671 -0.22581003 0.55737007 1.000000
0.295282 -0.217876 0.570583 0.85326342 0.15966708 0.49643525 1.000000
0.302026 -0.219890 0.560642 0.81763091 0.21036498 0.53593494 1.000000
0.308305 -0.221477 0.552177 0.79906878 0.18435295 0.57227884 1.000000
0.314447 -0.223186 0.544361 0.81735173 0.16211095 0.55286182 1.000000
0.334665 -0.229991 0.509895 0.88138383 0.16865697 0.44126791 1.000000
0.375100 -0.244304 0.438903 0.83796126 0.003053 0.54572117 1.000000
0.394517 -0.250896 0.406467 0.88124996 0.002668 0.47264298 1.000000
0.401681 -0.253734 0.393779 0.84397931 -0.01219 0.5362372 1.000000
0.414323 -0.257701 0.375251 0.86118567 0.05021698 0.50580381 1.000000
0.428544 -0.256724 0.348327 0.88606003 0.076001 0.45729801 1.000000
0.466279 -0.282268 0.284805 0.81820998 -0.011673 0.57480098 1.000000
0.664964 -0.349040 -0.074223 0.84325773 -0.05133098 0.53505283 1.000000
0.678430 -0.354533 -0.100243 0.90944102 0.035028 0.41435501 1.000000
0.253808 -0.362193 0.642009 0.86000634 -0.02660701 0.5095892 1.000000
-0.487029 -0.171916 1.608112 0.9696519 0.03009 0.24263097 2.000000
-0.565642 -0.130504 2.128002 0.89253328 -0.07992803 0.44384214 1.000000
-0.703208 -0.332805 2.363708 0.88566375 0.011853 0.46417587 1.000000
0.020746 -0.771190 1.048648 0.91216945 -0.10119094 0.39712376 1.000000
-0.726020 0.152089 2.414417 0.84895638 -0.16891507 0.50074022 1.000000
-0.576911 0.332997 2.157707 0.85596017 0.03125701 0.5160961 1.000000
-0.247969 0.213918 0.969150 0.437427 -0.802988 0.404806 2.000000
0.024377 0.221578 1.031242 -0.2277889 -0.96363157 0.13973694 2.000000
-0.672919 0.151936 2.318088 0.87814399 -0.166509 0.44848399 1.000000
-0.096289 0.209096 0.776146 -0.05419498 -0.89427866 0.44421683 2.000000
-0.472808 0.185903 1.701957 0.87556315 -0.30102405 0.37785406 2.000000
-0.473731 0.179952 1.699714 0.91723491 -0.25296198 0.30771797 2.000000
-0.468360 0.186788 1.691043 0.89482073 -0.3385319 0.29101891 2.000000
-0.093741 0.220845 0.840404 0.05879102 -0.98544641 0.15949607 2.000000
-0.225913 -0.060283 -0.318024 0.99962906 -0.025516 0.009522 3.000000
-0.226905 -0.061717 -0.363728 0.99612258 -0.08216497 -0.03144399 3.000000
-0.250121 0.375966 1.567413 0.83847128 0.20474507 0.50502017 1.000000
-0.329726 0.097768 0.836090 0.83502303 -0.47539202 0.27701801 2.000000
-0.331244 0.091329 0.827743 0.79937117 -0.55798212 0.22284905 2.000000
-0.325446 0.097066 0.822677 0.8161209 -0.52004493 0.25199197 2.000000
-0.114752 0.321950 1.320190 0.85586689 0.032166 0.51619494 1.000000
-0.319594 0.337727 1.687908 0.85842311 -0.24646803 0.44984806 1.000000
-0.314467 0.338307 1.678012 0.85883922 -0.23116906 0.45711712 1.000000
-0.146689 0.380391 1.386055 0.86026595 -0.12534299 0.49419797 1.000000
-0.294051 0.334248 1.641071 0.82555127 -0.26341809 0.49907516 1.000000
-0.131171 -0.296947 -0.007504 0.21462605 0.97084922 0.10671202 2.000000
-0.119574 -0.298472 -0.003540 0.13384801 0.98208209 0.13266301 2.000000
-0.113349 -0.299358 -0.005635 0.29012493 0.94483678 0.15202296 2.000000
-0.100722 -0.301921 -0.014729 0.3016949 0.94428868 0.13152596 2.000000
-0.094260 -0.303294 -0.021157 0.34813488 0.92952267 0.12161296 2.000000
-0.080947 -0.306743 -0.039135 0.38141502 0.91312404 0.14396901 2.000000
-0.069457 -0.312663 -0.029591 0.24814492 0.9507447 0.18576494 2.000000
-0.062354 -0.310222 -0.048657 0.10073903 0.9805553 0.16841305 2.000000
-0.056082 -0.310649 -0.049122 0.05849502 0.9898223 0.12973104 2.000000
-0.043570 -0.311381 -0.051846 0.04834198 0.99086453 0.12589894 2.000000
-0.037398 -0.311473 -0.051907 -0.005269 0.98810319 0.15370203 2.000000
-0.024932 -0.311381 -0.047745 -0.05982698 0.96123969 0.26914491 2.000000
-0.013602 -0.315501 -0.027531 -0.052907 0.96491307 0.25718402 2.000000
-0.006644 -0.311809 -0.040116 -0.06083098 0.96131264 0.2686589 2.000000
-0.000525 -0.311687 -0.038220 -0.13277995 0.94665561 0.29361988 2.000000
0.005433 -0.311259 -0.035633 -0.28403097 0.90800592 0.30797997 2.000000
0.011384 -0.310496 -0.030712 -0.385751 0.87410301 0.295195 2.000000
0.010713 -0.314860 -0.020783 -0.4277509 0.8417748 0.32930892 2.000000
0.023591 -0.309337 -0.016457 -0.41848996 0.80911191 0.41255796 2.000000
0.029657 -0.309428 -0.012658 -0.19984102 0.84836107 0.49025204 2.000000
0.035730 -0.310008 -0.010620 -0.12478698 0.88958385 0.43939593 2.000000
-0.458869 -0.040568 1.485637 0.93297519 -0.26500106 0.24358105 2.000000
0.214311 -0.193828 0.715637 0.83914168 0.06138598 0.54043779 1.000000
0.722070 0.323995 -0.153256 0.79717724 -0.18024105 0.57621317 1.000000
0.288675 -0.220988 0.583961 0.82608689 0.28161096 0.48813494 1.000000
0.295114 -0.223399 0.573619 0.82883404 0.29537701 0.47517002 1.000000
0.301629 -0.225566 0.563930 0.82265808 0.29155903 0.48808505 1.000000
0.313646 -0.234782 0.549678 0.81801826 0.21375707 0.53399817 1.000000
0.318689 -0.247966 0.545890 0.85040617 0.13302503 0.5090321 1.000000
0.498155 0.595571 0.275436 0.85276624 0.02100701 0.52187015 1.000000
0.367875 -0.248576 0.450988 0.88190014 0.04046901 0.46969607 1.000000
0.400789 -0.259868 0.395145 0.84483291 0.007262 0.53498095 1.000000
0.413606 -0.263499 0.376335 0.84459531 -0.01649101 0.5351512 1.000000
0.453897 -0.278972 0.300613 0.80482087 -0.02632 0.59293391 1.000000
0.459657 -0.280467 0.293487 0.7840039 -0.030464 0.62000792 1.000000
0.632745 -0.344310 -0.019093 0.89077971 -0.01982199 0.45400285 1.000000
0.659028 -0.353953 -0.067727 0.79150107 -0.12960301 0.59726805 1.000000
-0.039778 0.457234 1.194011 0.87959035 0.02694501 0.47496819 1.000000
-0.243041 -0.125651 0.125702 0.95195685 0.24890296 0.17839697 3.000000
-0.248191 0.259480 1.243782 0.260717 -0.94034399 0.218586 2.000000
-0.579421 0.064717 2.150123 0.88459011 0.12995602 0.44789706 1.000000
0.326974 0.461018 0.555133 0.88408425 0.02310301 0.46675613 1.000000
-0.759604 0.157430 2.472873 0.88680395 -0.071086 0.45664597 1.000000
-0.753440 0.148671 2.460399 0.85814946 -0.02456998 0.51281168 1.000000
-0.739386 0.150075 2.437637 0.86037331 -0.09368903 0.50097918 1.000000
-0.732314 0.146932 2.423400 0.8536378 -0.25269394 0.4554649 1.000000
-0.725630 0.144521 2.409553 0.82020517 -0.30282606 0.4853451 1.000000
-0.574691 0.476094 2.146835 0.87898981 0.07424598 0.4710249 1.000000
-0.318335 0.249593 1.391006 0.606761 -0.792287 0.064206 2.000000
-0.673979 0.364613 2.332969 0.83711589 -0.12257398 0.53311593 1.000000
-0.629080 0.358693 2.253562 0.81976682 0.11693697 0.56063188 1.000000
-0.537421 0.334340 2.089191 0.88642712 -0.034508 0.46158006 1.000000
-0.532462 0.339894 2.079586 0.88302084 -0.009584 0.46923591 1.000000
-0.695365 0.342610 2.371627 0.90752621 0.006035 0.4199521 1.000000
-0.452979 0.089742 1.528247 0.9686157 -0.15072795 0.19764794 2.000000
-0.329489 0.176106 1.093608 0.71530001 -0.68279101 0.148803 2.000000
-0.629828 0.208852 2.251529 0.93123536 -0.003214 0.36440414 1.000000
-0.597655 0.160878 2.188003 0.89055108 -0.042622 0.45288204 1.000000
-0.406691 0.428883 1.843891 0.86581448 -0.01904199 0.5000027 1.000000
-0.662024 0.163289 2.302497 0.86985839 -0.19529909 0.4529952 1.000000
-0.275397 0.221547 1.099102 0.3803268 -0.90735653 0.17904091 2.000000
-0.204985 -0.007365 -0.371365 0.81893521 -0.55345614 0.15176104 3.000000
-0.207900 -0.015178 -0.426110 0.79476306 -0.60610904 0.031361 3.000000
-0.202971 -0.008372 -0.398156 0.84040614 -0.53352609 0.09522302 3.000000
-0.560988 0.043538 2.121364 0.93437231 0.000871 0.35629712 1.000000
-0.363379 0.235707 1.444847 0.69568503 -0.54580702 0.46703002 2.000000
-0.182761 0.302113 1.442051 0.55646614 -0.58437015 0.59064115 1.000000
-0.177176 0.302266 1.436367 0.64498222 -0.49891417 0.57886319 1.000000
-0.229720 0.108937 0.470176 0.6709491 -0.7264461 0.14867202 2.000000
-0.282668 0.435384 1.625885 0.86292125 -0.11430903 0.49224014 1.000000
-0.331237 0.110555 0.854496 0.8058506 -0.47363777 0.35534782 2.000000
-0.325507 0.116261 0.848705 0.83230945 -0.47685926 0.28260615 2.000000
-0.646994 0.167409 2.276412 0.87153298 -0.039775 0.48872099 1.000000
-0.641890 0.166890 2.267925 0.84909905 -0.020363 0.52784103 1.000000
-0.216399 0.293813 1.429226 -0.024912 -0.98828298 0.150586 2.000000
-0.210105 0.293202 1.429641 -0.20906507 -0.96072933 0.18245806 2.000000
-0.695044 0.117085 2.358474 0.84590217 0.00292 0.5333301 1.000000
-0.680518 0.102773 2.335311 0.86899832 0.14923805 0.47177317 1.000000
-0.474669 0.083241 1.608341 0.98062462 0.011129 0.19557992 2.000000
-0.471305 0.075856 1.595512 0.97360902 0.150615 0.171466 2.000000
-0.259162 0.319386 1.575912 0.70138073 -0.38228785 0.60159877 2.000000
-0.544051 0.222798 2.098106 0.91946982 0.0175 0.39277092 1.000000
-0.126410 -0.300120 0.016689 0.25800707 0.95400126 0.15268904 2.000000
-0.120459 -0.301494 0.014713 0.32914386 0.9149496 0.2335199 2.000000
-0.114463 -0.303050 0.011791 0.42014195 0.8467319 0.32638296 2.000000
-0.095465 -0.306865 -0.001942 0.39115 0.87569801 0.283116 2.000000
-0.088813 -0.308055 -0.009377 0.43886101 0.87688302 0.196156 2.000000
-0.075690 -0.311412 -0.025574 0.39437013 0.8993133 0.18896506 2.000000
-0.063300 -0.313457 -0.030796 0.06002198 0.97724569 0.20344094 2.000000
-0.057082 -0.313701 -0.029282 -0.027304 0.98336585 0.17957197 2.000000
-0.050917 -0.313457 -0.027050 -0.08848901 0.98407712 0.15414902 2.000000
-0.044730 -0.313609 -0.026635 0.05658901 0.99341418 0.09962902 2.000000
-0.032180 -0.314555 -0.029221 0.06891102 0.99176023 0.10799502 2.000000
-0.025923 -0.314921 -0.029915 0.06654803 0.98787545 0.14026206 2.000000
-0.019736 -0.315227 -0.028931 0.09322302 0.97546723 0.19943205 2.000000
-0.007407 -0.315776 -0.026822 -0.001429 0.94684804 0.32167801 2.000000
-0.001273 -0.315837 -0.026352 -0.063001 0.93242397 0.35583199 2.000000
0.004731 -0.315440 -0.024907 -0.21798191 0.91239162 0.34644685 2.000000
0.016916 -0.314403 -0.014145 -0.41678892 0.85128684 0.31874394 2.000000
0.023011 -0.314067 -0.007862 -0.32346609 0.89578424 0.30486108 2.000000
0.029092 -0.313945 -0.003384 -0.20118704 0.94807321 0.24633505 2.000000
-0.291594 -0.280894 0.614582 0.94515561 0.31338487 0.09203696 2.000000
0.219705 -0.202128 0.707790 0.85130836 0.03649002 0.52339522 1.000000
0.255212 -0.214549 0.644447 0.83535124 -0.03344601 0.54869816 1.000000
0.261262 -0.223094 0.634109 0.87207102 -0.005538 0.48934801 1.000000
0.288743 -0.226207 0.587776 0.83424802 0.29183901 0.46782501 1.000000
0.307298 -0.233012 0.558651 0.83644982 0.21731795 0.50311489 1.000000
0.367349 -0.254771 0.452858 0.87836807 0.08361801 0.47061404 1.000000
0.453866 -0.285411 0.299968 0.79836084 -0.10004898 0.59380988 1.000000
0.459718 -0.286876 0.292469 0.78874395 -0.16886599 0.59107297 1.000000
0.466455 -0.288707 0.282955 0.84116448 -0.20965287 0.49848569 1.000000
0.507257 -0.304545 0.205398 0.89261563 0.07512597 0.44451482 1.000000
0.520631 -0.309550 0.182296 0.86250109 0.013502 0.50587505 1.000000
0.526765 -0.318004 0.170917 0.87555475 -0.01782799 0.48278986 1.000000
0.071290 -0.412089 0.853916 -0.75597643 0.64011637 0.13693308 2.000000
0.451341 -0.380260 0.300106 0.88679086 0.011416 0.46202993 1.000000
-0.615363 0.438161 2.223339 0.91921087 0.010711 0.39361994 1.000000
-0.611212 0.431172 2.214237 0.89434902 -0.045019 0.44509901 1.000000
-0.297087 -0.207805 0.541568 0.92962213 0.31726004 0.18748003 2.000000
-0.326720 -0.206340 0.723014 0.93895756 0.04561298 0.34099584 2.000000
-0.405928 -0.155162 1.152538 0.96792028 -0.12490604 0.21801106 2.000000
-0.450232 0.283498 1.824699 0.78305173 -0.5675968 0.25429091 2.000000
0.336145 -0.713115 0.492462 0.85188209 -0.08971101 0.51599306 1.000000
0.374604 -0.691325 0.426128 0.87250256 0.02762899 0.48782776 1.000000
0.540262 -0.444713 0.132339 0.90769112 0.03935901 0.41778906 1.000000
-0.740050 0.143697 2.436744 0.86558267 -0.22971391 0.44496983 1.000000
-0.731894 0.139455 2.417774 0.84401111 -0.30448704 0.44151206 1.000000
-0.724768 0.136617 2.402648 0.81655893 -0.28628998 0.50126796 1.000000
-0.431853 0.451497 1.894714 0.83173536 0.03732402 0.55391624 1.000000
-0.244315 0.150166 0.681820 0.68978938 -0.69569038 0.20051311 2.000000
-0.191848 0.229299 0.956550 0.37927089 -0.92428273 0.04306999 2.000000
-0.375029 0.094655 1.127323 0.33773608 -0.28214107 0.89795922 2.000000
-0.109069 0.111379 0.174339 0.46207209 -0.85847617 0.22250404 2.000000
-0.365195 0.052419 0.927990 0.96995323 -0.22366305 0.09573702 2.000000
-0.226676 -0.023204 -0.140492 0.91691239 -0.37101016 0.14704806 3.000000
-0.560195 0.143392 2.115493 0.93189485 -0.10898698 0.34596795 1.000000
-0.340155 0.190389 1.201206 0.52871912 -0.77400917 0.34837608 2.000000
-0.321768 0.115865 0.836765 0.861581 -0.404263 0.307001 2.000000
-0.224166 0.174397 0.727478 0.36674684 -0.88157661 0.29718587 2.000000
-0.348952 0.440389 1.748291 0.7901166 0.11504894 0.6020627 1.000000
-0.476905 0.121724 1.659641 0.96130381 -0.17464497 0.21305896 2.000000
-0.126830 -0.303874 0.031604 0.48770291 0.83312385 0.26086495 2.000000
-0.120871 -0.305705 0.025901 0.53366727 0.78047139 0.32567416 2.000000
-0.114958 -0.307689 0.020877 0.51516908 0.76339612 0.38965006 2.000000
-0.102721 -0.310618 0.011875 0.43182114 0.80298726 0.41078213 2.000000
-0.089469 -0.311992 0.002346 0.3923331 0.84682921 0.35910309 2.000000
-0.082938 -0.313151 -0.003365 0.39766399 0.88015098 0.25922499 2.000000
-0.076522 -0.314647 -0.008778 0.37448221 0.89572951 0.23964914 2.000000
-0.070304 -0.315959 -0.012902 0.29385592 0.92808676 0.22869994 2.000000
-0.064162 -0.316997 -0.014859 0.11241102 0.96191219 0.24917605 2.000000
-0.057944 -0.317241 -0.013447 -0.148357 0.95926903 0.24040201 2.000000
-0.045813 -0.316325 -0.004582 -0.17652506 0.95785033 0.22663108 2.000000
-0.039710 -0.316173 -0.001366 -0.00406 0.97866233 0.20543507 2.000000
-0.033461 -0.316691 -0.002316 0.14081003 0.98032921 0.13830103 2.000000
-0.027068 -0.317668 -0.007038 0.23476614 0.95539355 0.1791871 2.000000
-0.020636 -0.318675 -0.012299 0.28761894 0.9305288 0.22669695 2.000000
-0.014296 -0.319377 -0.015454 0.134407 0.94903598 0.28507099 2.000000
-0.008063 -0.319835 -0.016671 0.05880098 0.93646476 0.34579791 2.000000
-0.002036 -0.320018 -0.016480 -0.07125502 0.94252726 0.32644309 2.000000
0.003938 -0.319621 -0.014923 -0.24314002 0.93037106 0.27439502 2.000000
0.010049 -0.318889 -0.010491 -0.34271305 0.91756512 0.20154903 2.000000
0.016031 -0.318217 -0.002297 -0.32844014 0.93404941 0.14028106 2.000000
0.022073 -0.317515 0.006767 -0.25109809 0.96181536 0.10890804 2.000000
0.028116 -0.316844 0.014877 -0.23180006 0.97003724 0.07277702 2.000000
0.254518 -0.220775 0.645141 0.83125631 -0.001114 0.55588821 1.000000
0.272966 -0.227916 0.612926 0.82739529 0.20364007 0.52340018 1.000000
0.280076 -0.229137 0.604404 0.78600436 0.32828615 0.52385624 1.000000
0.294198 -0.234630 0.581695 0.86907552 0.10127394 0.48420174 1.000000
0.312829 -0.240367 0.553215 0.82922233 0.18017307 0.52908221 1.000000
0.326768 -0.244853 0.530849 0.86778408 0.15034801 0.47365205 1.000000
-0.338057 0.690816 1.727172 0.87388523 0.13445304 0.46716912 1.000000
0.405977 -0.280131 0.387741 0.86600746 -0.03392002 0.49887926 1.000000
0.467317 -0.296001 0.278415 0.82855913 -0.18670503 0.52785509 1.000000
0.474054 -0.299022 0.264667 0.87152754 -0.12464893 0.47423875 1.000000
0.546487 -0.326732 0.137149 0.84325859 -0.06701797 0.53331374 1.000000
-0.406676 -0.261119 1.158336 0.96465977 0.19205995 0.18040096 2.000000
-0.329642 -0.107341 0.687690 0.95475006 -0.14343401 0.26053602 2.000000
-0.754096 -0.137828 2.447845 0.86115835 -0.15610206 0.4837752 1.000000
0.087434 -0.658397 0.937202 0.82988151 0.02502102 0.55737835 1.000000
-0.575591 0.439168 2.158782 0.86560963 0.02459999 0.50011479 1.000000
0.460710 -0.349864 0.290355 0.85140018 -0.07182202 0.51957611 1.000000
0.374948 -0.585277 0.416183 0.87821089 0.023722 0.47768494 1.000000
0.064302 -0.406077 0.822269 -0.66238296 0.70471595 0.25421298 2.000000
0.568849 -0.372356 0.091751 0.90416341 -0.04863502 0.42440919 1.000000
0.109491 0.206532 0.925563 0.89116515 0.05422301 0.45042707 1.000000
0.293298 0.351949 0.616371 0.85931019 0.014748 0.51124211 1.000000
0.195695 -0.363414 0.742187 0.89628774 0.07508798 0.43706988 1.000000
-0.766295 0.140675 2.482845 0.88592007 -0.033063 0.46265804 1.000000
-0.759894 0.144643 2.471229 0.87181416 -0.07071801 0.48470509 1.000000
-0.753630 0.135945 2.458637 0.8636772 -0.14875104 0.48159611 1.000000
-0.739592 0.136556 2.431926 0.87251487 -0.23671197 0.42741694 1.000000
-0.731398 0.132344 2.411590 0.860854 -0.241728 0.44777 1.000000
-0.724326 0.129872 2.399601 0.79186831 -0.06564703 0.60715324 1.000000
-0.019049 0.130940 0.330669 -0.52426407 -0.83332912 0.17524202 2.000000
-0.355857 0.099233 1.128494 -0.005113 -0.54389184 0.83913975 2.000000
-0.421691 0.426595 1.877487 0.87902013 -0.13177402 0.45821307 1.000000
-0.648459 0.217824 2.281566 0.86079674 -0.14277996 0.48851085 1.000000
-0.536040 0.151112 2.023067 0.92561352 0.003467 0.37845421 2.000000
-0.527465 0.143483 2.001308 0.92163676 -0.03331599 0.3866209 2.000000
-0.535765 0.157338 2.022926 0.92040677 -0.07941298 0.3828119 2.000000
-0.335204 0.092183 0.844474 0.86243338 -0.44188219 0.24687811 2.000000
-0.260886 0.246541 1.200142 0.32961513 -0.93831736 0.10447204 2.000000
-0.161025 0.303212 1.414543 0.82425047 -0.3456552 0.44847926 1.000000
-0.106772 0.263326 1.216331 0.12249295 -0.96620463 0.22681291 2.000000
-0.477538 0.008870 1.620201 0.97785955 -0.18172892 0.10375595 2.000000
-0.435149 -0.008433 1.376625 0.99632931 -0.07223302 0.04593801 2.000000
-0.434584 -0.002177 1.377182 0.98929872 -0.14400696 0.02345299 2.000000
-0.436187 0.000142 1.446128 0.9793816 -0.06662097 0.19071792 2.000000
-0.434165 -0.000896 1.420078 0.98859439 -0.14856706 0.02467701 2.000000
-0.629271 0.133687 2.240825 0.82296005 -0.033998 0.56708103 1.000000
-0.634185 0.134358 2.248340 0.84321525 -0.08122602 0.53140416 1.000000
-0.327010 0.110219 0.844627 0.85838076 -0.38610589 0.3377939 2.000000
-0.120963 0.274617 1.297798 -0.16543707 -0.94171441 0.29292413 2.000000
-0.494429 0.048787 1.709289 0.97929888 -0.18362898 0.08517099 2.000000
-0.200141 0.017842 -0.352902 0.85305417 -0.5180821 0.06236601 3.000000
-0.199668 0.010487 -0.386376 0.96734379 -0.24059495 0.07974998 3.000000
-0.135207 0.277425 1.282814 -0.30080188 -0.94600661 0.12078795 2.000000
-0.557944 0.174580 2.117683 0.93365474 -0.13643796 0.33116991 1.000000
-0.553908 0.173634 2.101615 0.97742675 -0.12702797 0.16882196 1.000000
-0.558882 0.299733 2.125694 0.90274901 -0.046362 0.427662 1.000000
-0.128043 -0.307689 0.046478 0.51918779 0.83443466 0.18483192 2.000000
-0.121390 -0.309764 0.037933 0.56179615 0.79416721 0.23169706 2.000000
-0.115447 -0.312053 0.031257 0.54111392 0.79243588 0.28149796 2.000000
-0.109587 -0.313792 0.026256 0.41809108 0.84332217 0.33765007 2.000000
-0.096656 -0.315837 0.017994 0.32443697 0.88937891 0.32209597 2.000000
-0.090316 -0.316295 0.014259 0.26498703 0.9185091 0.29346703 2.000000
-0.084777 -0.321025 0.025718 0.31292912 0.91147334 0.2670051 2.000000
-0.070937 -0.319682 0.001041 0.32744799 0.91291696 0.24363999 2.000000
-0.064833 -0.320750 -0.001896 0.17628994 0.94941369 0.25987592 2.000000
-0.058669 -0.321178 -0.001591 -0.05337098 0.95513268 0.2913299 2.000000
-0.052550 -0.320933 0.001762 -0.24979494 0.90560677 0.34275191 2.000000
-0.046492 -0.320567 0.006309 -0.28461309 0.87246528 0.39724013 2.000000
-0.040389 -0.320445 0.009403 -0.13927501 0.87332708 0.46680004 2.000000
-0.034186 -0.320628 0.009929 0.07903804 0.91175449 0.40305922 2.000000
-0.027877 -0.321239 0.007789 0.25273893 0.92768074 0.27482992 2.000000
-0.015044 -0.322978 -0.002110 0.21455703 0.95295714 0.21409803 2.000000
-0.008788 -0.323497 -0.004895 0.07634202 0.97460823 0.21050105 2.000000
-0.002722 -0.323527 -0.004204 -0.12050904 0.98029634 0.15651405 2.000000
0.003267 -0.322948 0.000145 -0.26624601 0.95941003 0.092981 2.000000
0.009218 -0.321788 0.009803 -0.30074801 0.95238402 0.050153 2.000000
0.015031 -0.320445 0.023468 -0.25314094 0.96669077 0.03779699 2.000000
0.020952 -0.319469 0.033561 -0.20150801 0.97846303 0.044773 2.000000
0.026895 -0.318492 0.043037 -0.22361794 0.97316076 0.05434299 2.000000
0.032831 -0.317485 0.053814 -0.26252685 0.95990047 0.09833995 2.000000
0.038789 -0.316447 0.062240 -0.30651202 0.94522406 0.11225801 2.000000
-0.576667 -0.222789 2.146060 0.82110276 0.11001397 0.56007784 1.000000
0.362237 0.264577 0.494907 0.85767203 -0.091226 0.50604002 1.000000
0.266290 -0.231578 0.624595 0.85633079 0.09676098 0.50728187 1.000000
-0.317672 0.688527 1.690197 0.8689498 -0.004909 0.49487589 1.000000
0.454110 -0.298717 0.296432 0.83492504 -0.081425 0.54430703 1.000000
0.460298 -0.300731 0.287208 0.81467915 -0.13053302 0.5650301 1.000000
-0.408896 -0.016582 1.185421 0.99425861 0.09657596 0.04607498 2.000000
0.330003 -0.661937 0.497951 0.853516 0.148624 0.499421 1.000000
0.079660 -0.443004 0.953132 0.79412131 0.21243208 0.56942423 1.000000
-0.192992 -0.187511 -0.127533 0.9394328 0.33659293 0.06458499 3.000000
-0.429267 -0.103648 1.340397 0.98429352 -0.14608393 0.09912495 2.000000
-0.212355 -0.165538 -0.261013 0.86285389 0.50543493 -0.004324 3.000000
-0.039656 -0.677226 1.166523 0.89310315 0.04490501 0.44760508 1.000000
-0.034407 -0.692149 1.157558 0.87885479 0.03864199 0.47552188 1.000000
-0.027068 -0.688975 1.141529 0.89303539 0.09664204 0.43948619 1.000000
0.412477 -0.682292 0.362014 0.85800654 -0.000187 0.51363873 1.000000
0.520173 -0.567668 0.170482 0.81902436 -0.07909903 0.56828025 1.000000
0.600221 -0.375194 0.042022 0.85110203 -0.075163 0.51959202 1.000000
-0.747344 0.133840 2.445987 0.88067425 -0.18959105 0.43412912 1.000000
-0.739379 0.129384 2.426860 0.89295255 -0.16169992 0.42010579 1.000000
-0.731513 0.125935 2.409500 0.86636903 -0.07099 0.49433302 1.000000
-0.724868 0.124074 2.400604 0.77842813 0.10665902 0.6186061 1.000000
-0.221312 0.170796 0.702125 0.3698091 -0.92186725 0.11576703 2.000000
-0.054732 0.200887 0.761215 -0.24651101 -0.95639802 0.156637 2.000000
-0.389868 0.448415 1.822075 0.7951754 0.13946107 0.5901243 1.000000
-0.548094 0.171651 2.053585 0.95439493 -0.07726699 0.28837498 2.000000
-0.539366 0.170522 2.034687 0.89916807 -0.11533501 0.42213103 2.000000
-0.403365 0.072865 1.261272 0.95984093 -0.08249399 0.26814198 2.000000
-0.561103 0.130940 2.117084 0.90975898 0.110964 0.40003199 1.000000
-0.556945 0.130208 2.105129 0.97396293 0.08960699 0.20824698 1.000000
-0.663504 0.213429 2.312995 0.89159681 -0.13469097 0.43233491 1.000000
-0.662741 0.226125 2.315704 0.89036321 -0.13820703 0.4337651 1.000000
-0.347602 0.149434 1.052719 0.82019856 -0.5625657 0.10389494 2.000000
-0.122695 -0.313029 0.055790 0.51907212 0.84788119 0.10798902 2.000000
-0.116011 -0.315562 0.044742 0.54378993 0.81775389 0.18860298 2.000000
-0.110091 -0.317607 0.039001 0.38178286 0.88815166 0.2557899 2.000000
-0.097480 -0.319865 0.031734 0.26718795 0.92161184 0.28149995 2.000000
-0.071837 -0.323253 0.016708 0.29847209 0.92490127 0.23552507 2.000000
-0.065627 -0.324382 0.013332 0.19197899 0.96030895 0.20236299 2.000000
-0.059447 -0.324931 0.012275 0.08352196 0.97212757 0.2190709 2.000000
-0.053282 -0.325114 0.012970 -0.000171 0.95780849 0.28740715 2.000000
-0.047110 -0.325236 0.014061 -0.10439802 0.89813117 0.42715508 2.000000
-0.040930 -0.325328 0.015220 -0.09867301 0.85197712 0.51419707 2.000000
-0.034781 -0.325450 0.016780 -0.12562797 0.88199982 0.45419591 2.000000
-0.028563 -0.325389 0.018283 -0.05925601 0.94544412 0.32035004 2.000000
-0.022315 -0.325603 0.018551 0.13349403 0.96997719 0.20328204 2.000000
-0.016036 -0.326060 0.016876 0.06828102 0.9899493 0.12384704 2.000000
-0.009803 -0.326396 0.016037 -0.04035098 0.99572454 0.08309296 2.000000
-0.003905 -0.325938 0.019989 -0.20360895 0.97817777 0.04137199 2.000000
0.001985 -0.324382 0.030742 -0.28864003 0.95725511 0.018697 2.000000
0.007707 -0.322612 0.045799 -0.2785881 0.96014835 0.02244601 2.000000
0.013589 -0.321391 0.057880 -0.19450209 0.97952843 0.05189402 2.000000
0.019639 -0.320994 0.062999 -0.12508298 0.98680783 0.10278398 2.000000
0.025766 -0.320750 0.065631 -0.17896702 0.97421313 0.13740302 2.000000
0.030748 -0.323100 0.084018 -0.28247401 0.94751905 0.14972001 2.000000
0.265695 -0.237620 0.627582 0.87186605 0.19077801 0.45105803 1.000000
0.333581 -0.253520 0.519912 0.86360222 -0.006403 0.50413313 1.000000
0.333612 -0.260081 0.519485 0.8595158 -0.11860697 0.49715689 1.000000
0.340143 -0.262279 0.509075 0.82624288 -0.12720398 0.54876392 1.000000
0.346772 -0.264384 0.497722 0.87438437 -0.03387301 0.4840502 1.000000
0.585161 -0.353465 0.060657 0.84077401 0.082632 0.53504301 1.000000
-0.394294 -0.019786 1.120742 0.93009199 -0.02355 0.36657099 2.000000
0.299173 -0.671886 0.557632 0.86076369 0.01437299 0.50880182 1.000000
0.448587 -0.449077 0.299453 0.83923395 -0.047545 0.54168797 1.000000
0.176942 0.562734 0.830166 0.86367523 0.03816001 0.50260214 1.000000
-0.759505 0.131947 2.469554 0.89603597 -0.027532 0.44312699 1.000000
-0.753462 0.129201 2.456851 0.89692171 -0.08819497 0.43330486 1.000000
-0.739669 0.122456 2.425304 0.89852602 -0.027705 0.43804501 1.000000
-0.732131 0.119832 2.411186 0.83792626 0.14411005 0.52641417 1.000000
-0.720603 0.110921 2.398246 0.78757591 0.14656098 0.59853493 1.000000
-0.436827 0.064320 1.459877 0.94601903 -0.071805 0.31605701 2.000000
-0.097625 0.280782 1.280769 0.72457003 -0.64927303 0.23117701 1.000000
-0.239493 0.151082 0.669422 0.65766189 -0.70595789 0.26287696 2.000000
-0.234336 0.151662 0.660080 0.56064985 -0.77575779 0.28960592 2.000000
-0.240294 0.264241 1.253757 0.35745798 -0.92675696 0.11552199 2.000000
-0.551207 0.172475 2.072578 0.98557911 -0.12087401 0.11842001 2.000000
-0.431380 0.237843 1.652885 0.89857179 -0.4244199 0.11151897 2.000000
-0.685256 0.179097 2.351909 0.83265694 -0.18631399 0.52150696 1.000000
-0.397620 0.116994 1.289886 0.9331748 -0.34968393 0.08310198 2.000000
-0.016028 0.263875 1.140037 0.69516795 -0.35792497 0.62340295 1.000000
-0.643607 0.141835 2.268955 0.87007208 -0.18662702 0.45622904 1.000000
-0.293181 0.252339 1.290966 0.42589278 -0.89018554 0.16181792 2.000000
-0.395209 0.051412 1.195324 0.99490752 -0.09041096 0.04455198 2.000000
-0.334906 -0.031444 0.703151 0.96562796 0.032479 0.25789099 2.000000
-0.151404 0.284139 1.350841 0.06441401 -0.98687319 0.14809503 2.000000
-0.632537 0.096333 2.239006 0.81127207 -0.08883201 0.57788105 1.000000
-0.416991 -0.007640 1.249900 0.9645996 -0.000695 0.26371789 2.000000
-0.654967 0.049214 2.278606 0.84683196 0.007334 0.53180997 1.000000
-0.618415 0.088307 2.215492 0.91205109 -0.042117 0.40790804 1.000000
-0.613509 0.087605 2.203777 0.89754978 0.016932 0.44058789 1.000000
-0.121093 0.236653 1.066154 0.48508119 -0.79087331 0.37311614 2.000000
-0.464324 0.074727 1.555725 0.96103709 -0.14297501 0.23657102 2.000000
-0.467963 0.075032 1.573795 0.98212548 0.10856405 0.15376407 2.000000
-0.471434 0.290212 1.958496 0.73395518 -0.59110414 0.33452308 1.000000
-0.471472 0.358846 1.963482 0.8168012 -0.10298403 0.56765314 1.000000
-0.191489 0.220448 0.863521 -0.50620096 -0.77098494 0.38644897 2.000000
-0.540503 0.195973 2.050701 0.90459698 -0.32326599 0.27785499 2.000000
-0.541587 0.189748 2.047225 0.91169203 -0.30092601 0.27975201 2.000000
-0.531874 0.194478 2.024646 0.92008239 -0.21580309 0.32692114 2.000000
-0.473754 0.333241 1.968509 0.77578683 0.11353498 0.62069687 1.000000
-0.540572 0.151723 2.033111 0.92248787 0.030327 0.38483295 2.000000
-0.282210 0.120351 0.698959 0.63777044 -0.75935853 0.12893209 2.000000
-0.316764 0.087148 0.741500 0.90498909 -0.35001303 0.24183802 2.000000
-0.590819 0.253957 2.184928 0.82067567 -0.03290999 0.57044577 1.000000
-0.624732 0.445577 2.245788 0.91301871 0.03567299 0.40635487 1.000000
-0.110694 -0.320567 0.054332 0.50117199 0.86128698 0.083734 2.000000
-0.104399 -0.322337 0.048191 0.36829291 0.91642678 0.15659596 2.000000
-0.098166 -0.323558 0.044830 0.30618197 0.92262991 0.23453498 2.000000
-0.079230 -0.326152 0.036129 0.25673697 0.92540989 0.27875197 2.000000
-0.072898 -0.326884 0.033588 0.16777095 0.9622257 0.21441693 2.000000
-0.060416 -0.328166 0.031170 0.11656302 0.97755414 0.17550203 2.000000
-0.054122 -0.328807 0.028705 0.13746706 0.97557245 0.17135108 2.000000
-0.047835 -0.329539 0.025627 0.12151197 0.97373376 0.19255495 2.000000
-0.041594 -0.329967 0.024948 -0.03102801 0.9765212 0.21317504 2.000000
-0.035559 -0.329692 0.028465 -0.17237803 0.97375317 0.14862903 2.000000
-0.029608 -0.328929 0.034130 -0.17659395 0.97794574 0.11151997 2.000000
-0.023337 -0.328258 0.038990 -0.09249804 0.99157038 0.09073203 2.000000
-0.017256 -0.328105 0.042144 -0.06541502 0.9952163 0.07256302 2.000000
-0.011245 -0.327739 0.046108 -0.14888296 0.98786175 0.04430599 2.000000
-0.005301 -0.326701 0.053821 -0.25354313 0.9665015 0.03988402 2.000000
0.000551 -0.325358 0.064930 -0.29865612 0.95242938 0.06068602 2.000000
0.006463 -0.324351 0.074241 -0.25645506 0.95919524 0.11906003 2.000000
0.012552 -0.323985 0.078041 -0.11983499 0.97243796 0.20000999 2.000000
0.024820 -0.323649 0.080242 -0.14938594 0.96577559 0.21204091 2.000000
-0.422797 -0.150859 1.246067 0.94504079 -0.30039393 0.12907897 2.000000
0.265252 -0.243449 0.631622 0.86573972 0.19801594 0.45965685 1.000000
0.346292 -0.270824 0.497207 0.87811568 -0.11115696 0.46535683 1.000000
0.584901 -0.359660 0.061489 0.83700244 -0.02284001 0.54672228 1.000000
0.058633 -0.310649 0.129547 -0.59929102 0.79600903 0.08497 2.000000
0.388238 0.049031 0.427791 0.80232585 -0.31802394 0.50510791 1.000000
-0.767951 0.122304 2.485858 0.89065622 -0.01157 0.45453011 1.000000
-0.752799 0.115865 2.453350 0.90819434 -0.04078202 0.41655716 1.000000
-0.746726 0.119100 2.440506 0.9064571 -0.06989201 0.41647405 1.000000
-0.746558 0.112904 2.439872 0.88838994 0.063356 0.45469697 1.000000
-0.732787 0.114705 2.414485 0.84190693 0.22322598 0.49128696 1.000000
-0.727172 0.107045 2.409313 0.81810399 0.225192 0.52914499 1.000000
-0.105788 0.145284 0.383136 0.10831998 -0.98292584 0.14873998 2.000000
-0.467368 0.192525 1.694931 0.8783282 -0.36982908 0.30292907 2.000000
-0.462630 0.193623 1.680423 0.89272846 -0.40594175 0.19556888 2.000000
-0.466582 0.283620 1.896663 0.81360964 -0.57097275 0.10967895 2.000000
-0.031592 0.139668 0.376354 -0.10128401 -0.99386109 0.044516 2.000000
-0.060500 0.139028 0.346534 0.16794294 -0.96416165 0.20539592 2.000000
-0.223410 0.272237 1.284412 0.21086508 -0.97470136 0.07411603 2.000000
-0.339415 0.092976 0.858780 0.87411416 -0.32826006 0.35800806 2.000000
-0.654502 0.136983 2.286224 0.83685609 -0.05304301 0.54484706 1.000000
-0.386428 0.067464 1.129551 0.8973084 -0.31831514 0.30579914 2.000000
-0.620963 0.120229 2.226387 0.88382207 -0.06797101 0.46285904 1.000000
-0.396659 0.045247 1.193470 0.96664331 -0.25091008 0.05142802 2.000000
-0.630446 0.034291 2.247619 0.93796582 -0.10702998 0.32979494 1.000000
-0.229125 -0.076915 -0.450570 0.99890961 0.01807799 0.04304398 3.000000
-0.228644 -0.078136 -0.487027 0.99260095 0.12138599 -0.002967 3.000000
-0.203528 0.381062 1.483749 0.89619212 -0.000318 0.44366606 1.000000
-0.241179 0.296620 1.481128 0.11415898 -0.98248882 0.14725297 2.000000
-0.580252 0.127126 2.147712 0.86358505 -0.14682101 0.48235303 1.000000
-0.201178 -0.002025 -0.389920 0.96225527 -0.24440307 0.11971603 3.000000
-0.145018 0.220632 0.883163 0.60071811 -0.79467515 0.08734502 2.000000
-0.534903 0.201253 2.039691 0.92363582 -0.27223595 0.26978595 2.000000
-0.337470 0.325154 1.704120 0.5662663 -0.70602638 0.42528723 2.000000
-0.327903 0.123158 0.868507 0.74201637 -0.5925273 0.31356516 2.000000
-0.192694 0.239613 1.095386 -0.07972498 -0.99283069 0.08905697 2.000000
-0.118727 -0.318614 0.099239 0.49895073 0.86429053 0.06363997 2.000000
-0.111739 -0.321696 0.081913 0.48598004 0.87245807 0.051384 2.000000
-0.105208 -0.324382 0.069309 0.40944793 0.91096585 0.04993599 2.000000
-0.098937 -0.326396 0.061481 0.35947089 0.92623371 0.11345396 2.000000
-0.092589 -0.328075 0.056320 0.30438507 0.93901921 0.15997704 2.000000
-0.086287 -0.329204 0.052410 0.25210701 0.94133203 0.22435701 2.000000
-0.080031 -0.330058 0.049953 0.15363595 0.97334268 0.17029394 2.000000
-0.073813 -0.330516 0.049484 0.072797 0.98643795 0.14710799 2.000000
-0.061400 -0.331065 0.050541 0.066159 0.98858299 0.135376 2.000000
-0.055152 -0.331493 0.049881 0.08103899 0.99035384 0.11239198 2.000000
-0.048888 -0.332133 0.048317 0.07046797 0.99305052 0.09425995 2.000000
-0.042708 -0.332286 0.049202 -0.055039 0.99542893 0.07805099 2.000000
-0.036689 -0.331767 0.053962 -0.15669896 0.98458874 0.07765598 2.000000
-0.030799 -0.330943 0.059642 -0.17011 0.98099898 0.093293 2.000000
-0.024520 -0.330333 0.063579 -0.11745296 0.98649565 0.11415396 2.000000
-0.018485 -0.330150 0.066444 -0.11283104 0.98778039 0.10751304 2.000000
-0.012488 -0.329722 0.070598 -0.1829689 0.97831547 0.09706295 2.000000
-0.006499 -0.329021 0.076286 -0.23520002 0.96355208 0.12746901 2.000000
-0.000357 -0.328349 0.082122 -0.27187212 0.94516842 0.18094808 2.000000
0.005708 -0.327983 0.086448 -0.15509604 0.95618425 0.24830807 2.000000
0.010881 -0.331493 0.104435 -0.16218393 0.96887656 0.18701492 2.000000
0.023805 -0.326945 0.097171 -0.29418508 0.94344525 0.15286004 2.000000
0.029725 -0.325969 0.104766 -0.38022192 0.91788181 0.11368498 2.000000
0.095407 -0.721660 0.919281 0.80854703 -0.03937 0.58711302 1.000000
0.449571 0.537099 0.355804 0.83318802 -0.100898 0.54370701 1.000000
-0.339354 0.595998 1.726123 0.85861184 -0.19906496 0.47239691 1.000000
-0.329169 0.588826 1.703537 0.84116582 -0.24500895 0.4820899 1.000000
0.333139 -0.279857 0.513916 0.84112972 -0.15306695 0.51872083 1.000000
0.358094 -0.288463 0.469650 0.87958954 -0.07866005 0.46918529 1.000000
0.405816 -0.300151 0.383834 0.89567519 -0.19327704 0.40051209 1.000000
0.412553 -0.303294 0.366302 0.88863478 -0.20561295 0.4099409 1.000000
0.577455 -0.369701 0.071777 0.89085491 -0.05193999 0.45130895 1.000000
0.584695 -0.365764 0.061607 0.76533208 -0.003316 0.64362707 1.000000
0.591958 -0.367229 0.054199 0.76948669 0.04377698 0.63716074 1.000000
0.099420 0.175191 0.938400 0.71598411 -0.29743405 0.6315851 2.000000
-0.518470 -0.187785 1.817699 0.97511829 0.03885201 0.21825407 2.000000
0.200738 0.535390 0.788402 0.84873816 0.03881201 0.5273871 1.000000
0.114511 0.623952 0.932224 0.87423687 0.01276 0.48533193 1.000000
-0.760024 0.119161 2.470008 0.90408454 -0.04804998 0.42464378 1.000000
-0.740081 0.111195 2.428733 0.84016272 0.18643394 0.50928283 1.000000
-0.721335 0.104939 2.400550 0.84767313 0.11195202 0.51857208 1.000000
-0.714217 0.102834 2.390144 0.84776711 0.03169 0.52942107 1.000000
-0.476660 0.191182 1.713756 0.89966785 -0.26758896 0.34495494 2.000000
-0.667151 0.388570 2.323356 0.93036255 -0.01543499 0.36631582 1.000000
-0.573836 0.295491 2.156379 0.8773752 -0.03789501 0.47830611 1.000000
-0.325972 0.078450 0.770385 0.91152991 -0.34913997 0.21728898 2.000000
-0.412215 0.123708 1.358539 0.97444613 0.008847 0.22444703 2.000000
-0.520644 0.173818 1.980835 0.951967 0.145238 0.269564 2.000000
-0.520835 0.179860 1.978241 0.97126467 0.02216199 0.23696792 2.000000
-0.370406 0.280843 1.613567 0.4400209 -0.87432881 0.20476996 2.000000
-0.232100 0.268544 1.267131 0.3465091 -0.93573527 0.06581002 2.000000
-0.589949 0.140920 2.169563 0.889935 -0.055987 0.452638 1.000000
-0.584799 0.146504 2.160392 0.86275286 -0.04478099 0.50363892 1.000000
-0.612822 0.093739 2.203128 0.89979358 -0.08229396 0.4284848 1.000000
-0.408957 -0.010448 1.182182 0.99634721 -0.004284 0.08528702 2.000000
-0.405814 -0.011363 1.162407 0.96293674 -0.17418595 0.20594194 2.000000
-0.480315 0.301686 1.976360 0.69192695 -0.02114 0.72165795 1.000000
-0.705123 0.043385 2.367839 0.8703882 -0.14823103 0.46952311 1.000000
-0.704528 0.049733 2.369159 0.85802714 -0.16694103 0.48571608 1.000000
-0.224272 -0.075328 -0.580937 0.9719065 0.08074996 0.22108189 3.000000
-0.221259 -0.076182 -0.601414 0.99724942 0.07214803 -0.01697801 3.000000
-0.225646 -0.085521 -0.704914 0.99877692 -0.012037 -0.047956 3.000000
-0.220870 -0.025004 -0.182915 0.98283994 -0.16572999 0.080989 3.000000
-0.469451 0.181050 1.687118 0.90805366 -0.36500587 0.20544892 2.000000
-0.381247 0.066335 1.119583 0.57375813 -0.66094215 0.48369111 2.000000
-0.556662 0.136464 2.102466 0.97061267 -0.02480899 0.23936492 1.000000
-0.486922 0.142049 1.710907 0.9752124 -0.20208608 0.09012204 2.000000
-0.325881 0.210133 1.203304 0.87228885 -0.40168793 0.27885295 2.000000
-0.322783 0.208241 1.184940 0.91250288 -0.38437095 0.13999098 2.000000
-0.324301 0.201985 1.178718 0.89779643 -0.43212121 0.08504604 2.000000
-0.280081 0.257344 1.292297 0.26260093 -0.94690576 0.18549995 2.000000
-0.253791 0.259389 1.249576 0.22385099 -0.96291498 0.150617 2.000000
-0.245314 0.263631 1.264759 0.26765694 -0.95839579 0.09918298 2.000000
-0.220404 0.236897 1.025856 0.26243299 -0.96489997 0.009847 2.000000
-0.491240 0.044545 1.688018 0.96727431 -0.07021902 0.24382308 2.000000
-0.634421 0.278371 2.261528 0.89596397 -0.006376 0.44408098 1.000000
-0.126441 -0.318492 0.131237 0.31277207 0.9328182 0.17895204 2.000000
-0.114310 -0.324382 0.139999 0.39091189 0.91482075 0.10144397 2.000000
-0.113288 -0.322642 0.114101 0.41895391 0.90652681 0.05183399 2.000000
-0.093573 -0.329906 0.079620 0.35173405 0.93506612 0.04398301 2.000000
-0.087279 -0.331584 0.074100 0.19417296 0.97944077 0.05470499 2.000000
-0.081114 -0.332378 0.072723 0.09907101 0.99306708 0.063267 2.000000
-0.068679 -0.333354 0.071819 0.11876103 0.98925426 0.08527502 2.000000
-0.062430 -0.333781 0.071201 0.04278602 0.98948237 0.13818105 2.000000
-0.050093 -0.333934 0.074119 0.013788 0.99289991 0.11815099 2.000000
-0.043891 -0.334178 0.075294 -0.005156 0.98152763 0.19125093 2.000000
-0.037772 -0.334148 0.077041 -0.12189394 0.97975151 0.15883592 2.000000
-0.031699 -0.333842 0.079441 -0.15338304 0.96729224 0.20203805 2.000000
-0.019461 -0.333079 0.085533 -0.19404595 0.96584774 0.17170995 2.000000
-0.013449 -0.332500 0.090541 -0.21268904 0.96896318 0.12599102 2.000000
-0.007384 -0.331981 0.095398 -0.14463404 0.98042427 0.13360104 2.000000
-0.001136 -0.331828 0.098945 -0.10905902 0.9813982 0.15799903 2.000000
0.016862 -0.330943 0.108738 -0.25030097 0.95598887 0.15308398 2.000000
0.028772 -0.329112 0.123794 -0.41475783 0.89981462 0.13531294 2.000000
-0.329718 0.595326 1.706993 0.87092028 -0.12801304 0.47445815 1.000000
0.299051 -0.261058 0.572124 0.81281062 -0.02372399 0.58204473 1.000000
0.339074 -0.287883 0.504005 0.81829922 -0.12125103 0.56185815 1.000000
0.345453 -0.290477 0.493656 0.86797657 -0.10037795 0.48635476 1.000000
0.412828 -0.310496 0.362430 0.89089126 -0.16043005 0.42494112 1.000000
0.418550 -0.312938 0.350921 0.83732595 -0.15831399 0.52327997 1.000000
0.424905 -0.314342 0.342098 0.76390198 -0.21971399 0.60677799 1.000000
0.591234 -0.373393 0.054859 0.76226724 -0.05442502 0.64497021 1.000000
0.108194 0.168721 0.925888 0.77412368 -0.13548094 0.61836675 1.000000
-0.162467 -0.226420 -0.676556 0.55976184 0.82512777 0.07635998 3.000000
-0.161757 -0.221446 -0.714455 0.46226398 0.87238896 0.15890099 3.000000
0.030458 -0.411357 0.713928 -0.43595086 0.89118272 0.12545996 2.000000
-0.775557 0.112782 2.501392 0.89973114 -0.08118101 0.42882807 1.000000
-0.752913 0.109425 2.453247 0.90718053 0.02939098 0.41971378 1.000000
-0.746840 0.106923 2.441059 0.86099945 0.11656906 0.49506726 1.000000
-0.520034 0.388020 2.049369 0.81764124 0.10487103 0.56609617 1.000000
-0.678580 0.371816 2.341850 0.79243994 -0.14641999 0.59211496 1.000000
-0.678244 0.378072 2.343181 0.8104697 -0.14214395 0.56827279 1.000000
-0.085280 0.202809 0.767276 0.04536301 -0.92307021 0.38194709 2.000000
0.017099 0.230946 1.068485 0.21397699 -0.88166398 0.42057399 2.000000
-0.370208 0.065541 1.110305 0.60572577 -0.71694873 0.34508087 2.000000
-0.407965 0.067281 1.272388 0.94394516 -0.08705601 0.31841605 2.000000
-0.339698 -0.017345 0.743202 0.9871138 -0.04132399 0.15459197 2.000000
-0.340461 -0.023448 0.743625 0.98141524 -0.13071603 0.14049003 2.000000
-0.347319 -0.021800 0.779243 0.97969876 -0.12347697 0.15793596 2.000000
-0.343795 -0.022533 0.763652 0.97610148 -0.09664395 0.1946429 2.000000
-0.290671 0.383901 1.643356 0.8485309 0.09976999 0.51965494 1.000000
-0.421462 0.197286 1.552967 0.82685519 -0.53826913 0.16302404 2.000000
-0.699629 0.049214 2.360984 0.83213787 -0.14873998 0.53424992 1.000000
-0.395949 0.037862 1.161174 0.9738783 -0.17426105 0.14558205 2.000000
-0.180052 0.345601 1.443191 0.89334874 0.08994697 0.44026987 1.000000
-0.595053 0.210683 2.183757 0.87201331 -0.10611604 0.47784117 1.000000
-0.117743 0.183888 0.618290 0.08057704 -0.95369444 0.28978313 2.000000
-0.701110 0.243123 2.377201 0.89577166 -0.03704899 0.44296783 1.000000
-0.149207 0.187795 0.666919 0.10028996 -0.98016661 0.17092493 2.000000
-0.113471 0.239583 0.974128 0.14975197 -0.98252382 0.11054998 2.000000
-0.320830 0.085744 0.756244 0.92180165 -0.33969287 0.18678993 2.000000
-0.370299 0.082234 1.122253 0.57478428 -0.43367021 0.69394033 2.000000
-0.369513 0.087758 1.124580 0.26376311 -0.37848316 0.88723138 2.000000
-0.480193 0.161031 1.702701 0.93469501 -0.29831 0.193278 2.000000
-0.444083 0.149587 1.545379 0.78890808 -0.57214106 0.22422902 2.000000
-0.133574 -0.320232 0.150894 0.27237 0.94913099 0.158003 2.000000
-0.120703 -0.322612 0.143890 0.27645106 0.95062321 0.14103303 2.000000
-0.108260 -0.326152 0.134525 0.36743785 0.92636063 0.08273697 2.000000
-0.101721 -0.328105 0.124733 0.39533604 0.91727509 0.048123 2.000000
-0.095099 -0.330333 0.112934 0.33875205 0.93979913 0.04499601 2.000000
-0.088690 -0.331950 0.106941 0.216495 0.97544099 0.040556 2.000000
-0.076392 -0.333598 0.104950 0.18171393 0.98186664 0.05401798 2.000000
-0.063475 -0.336467 0.091991 0.31184694 0.94193883 0.12450998 2.000000
-0.057158 -0.337230 0.089458 0.07120503 0.97459443 0.21235709 2.000000
-0.038550 -0.338084 0.090259 -0.07296199 0.96211582 0.26269695 2.000000
-0.032531 -0.337932 0.092418 -0.19201601 0.95266106 0.23572602 2.000000
-0.026435 -0.337260 0.096775 -0.28912106 0.94322019 0.16353803 2.000000
-0.020446 -0.336253 0.104103 -0.31859201 0.94016404 0.12079201 2.000000
-0.014418 -0.335277 0.112598 -0.2411911 0.96277541 0.12202605 2.000000
-0.008361 -0.334941 0.117717 -0.11650699 0.98240093 0.14599499 2.000000
0.002870 -0.337749 0.141746 -0.14565503 0.97980022 0.13702603 2.000000
0.009950 -0.334575 0.124607 -0.11609696 0.98332865 0.13995095 2.000000
0.015939 -0.333995 0.128334 -0.18686801 0.97511905 0.11926101 2.000000
0.021936 -0.333263 0.133564 -0.26728393 0.95510574 0.12779797 2.000000
0.027742 -0.332255 0.140789 -0.35633218 0.92624648 0.12286106 2.000000
0.033502 -0.330760 0.150108 -0.44081001 0.89061603 0.111757 2.000000
0.039315 -0.328990 0.161007 -0.43456099 0.89389198 0.110063 2.000000
-0.281028 0.703725 1.622402 0.82605072 0.11451696 0.55183881 1.000000
-0.561186 -0.131175 2.117473 0.95294009 -0.11186701 0.28176403 1.000000
0.251550 -0.256816 0.656635 0.83428514 -0.07477401 0.54623909 1.000000
0.298990 -0.274425 0.571617 0.7882925 -0.08427205 0.60950239 1.000000
0.305375 -0.276042 0.563842 0.77399212 -0.08656501 0.6272501 1.000000
0.332696 -0.286204 0.513187 0.83508341 -0.07171204 0.54542927 1.000000
0.384675 -0.304393 0.422649 0.83014678 -0.18528595 0.52585686 1.000000
0.412561 -0.316997 0.361194 0.89990269 -0.07623897 0.42937485 1.000000
0.418077 -0.319224 0.350212 0.85153603 -0.090456 0.51643402 1.000000
0.577005 -0.375804 0.073196 0.88508096 0.06942 0.46023098 1.000000
0.583803 -0.377666 0.062656 0.81743251 0.01957599 0.57569165 1.000000
0.590616 -0.379497 0.054599 0.75836002 -0.081037 0.64677901 1.000000
-0.268607 -0.250163 0.472236 0.91269849 0.39165821 0.11655606 2.000000
-0.626250 -0.129161 2.227657 0.86362914 -0.004445 0.50410808 1.000000
-0.338279 0.311604 1.651615 0.33979813 -0.92632234 0.16267806 2.000000
0.450662 -0.104930 0.317394 0.86418217 0.11983902 0.4887001 1.000000
-0.003607 0.523091 1.136009 0.87232054 0.20769789 0.44262677 1.000000
-0.066123 0.540547 1.236198 0.81640504 0.054849 0.57486903 1.000000
-0.072570 0.534932 1.245250 0.82200399 0.074762 0.56455299 1.000000
-0.753440 0.103352 2.454917 0.89944782 0.10043098 0.42533191 1.000000
-0.747443 0.101064 2.443504 0.8472687 0.13955495 0.51250382 1.000000
-0.734862 0.097218 2.425331 0.83671671 0.16490194 0.52221882 1.000000
-0.722785 0.093068 2.404846 0.85286871 0.07938097 0.51605583 1.000000
-0.608100 0.486714 2.210849 0.87571613 0.05069001 0.48015807 1.000000
-0.515197 0.375050 2.045120 0.8251601 0.09419001 0.55699107 1.000000
-0.078871 0.118337 0.261387 -0.19491109 -0.97603844 0.09674004 2.000000
-0.417777 0.088521 1.394779 0.99545154 -0.07175704 0.06266703 2.000000
-0.412192 0.129872 1.357624 0.97499558 -0.07761397 0.20822991 2.000000
0.019090 0.247670 1.088249 0.80842764 -0.30286787 0.50469378 1.000000
0.024286 0.248006 1.078395 0.89472763 -0.09432496 0.43653782 1.000000
-0.412154 0.074208 1.283611 0.96802412 0.007631 0.25074103 2.000000
-0.407073 0.079854 1.272766 0.92517807 -0.11066501 0.36304103 2.000000
-0.411963 0.068044 1.286335 0.97419611 0.11239601 0.19572702 2.000000
-0.479064 0.332997 1.975597 0.84991256 -0.000145 0.52692373 1.000000
-0.160483 0.279866 1.280388 0.023209 -0.99426811 0.10436601 2.000000
-0.222129 0.293935 1.433780 0.12518004 -0.98169631 0.14353505 2.000000
-0.415526 0.075185 1.303516 0.98942161 -0.09316596 0.11119796 2.000000
-0.411490 0.080525 1.283893 0.95223977 -0.19818095 0.23230094 2.000000
-0.387313 0.209004 1.422195 0.5460562 -0.78780728 0.2849251 2.000000
-0.105468 0.183034 0.616520 -0.03015101 -0.94432521 0.32762907 2.000000
-0.155532 -0.316234 0.218677 0.48223497 0.87088995 0.09486899 2.000000
-0.140784 -0.321361 0.183204 0.49048176 0.86674057 0.09048996 2.000000
-0.134444 -0.323192 0.174354 0.31013803 0.93995008 0.14250701 2.000000
-0.115576 -0.326732 0.163009 0.30774688 0.93653964 0.16788494 2.000000
-0.109442 -0.328258 0.159141 0.37254801 0.91369103 0.162409 2.000000
-0.103163 -0.329997 0.152732 0.42196312 0.89711025 0.13092104 2.000000
-0.096533 -0.331859 0.142700 0.38788205 0.91646313 0.09819801 2.000000
-0.089980 -0.333507 0.134891 0.27886197 0.9534319 0.11490699 2.000000
-0.083724 -0.334575 0.131801 0.27082499 0.94750195 0.16998199 2.000000
-0.077475 -0.335612 0.128669 0.32547016 0.93159046 0.16189008 2.000000
-0.071044 -0.337321 0.121494 0.43947408 0.88354616 0.16189103 2.000000
-0.058028 -0.340739 0.105590 0.24430102 0.95589007 0.16306801 2.000000
-0.051741 -0.341350 0.103904 0.08040501 0.97266907 0.21783002 2.000000
-0.045523 -0.341716 0.103824 0.021044 0.9794388 0.20064096 2.000000
-0.039374 -0.341838 0.104946 -0.08845998 0.98278383 0.16220597 2.000000
-0.033362 -0.341380 0.108833 -0.25123011 0.95959241 0.12675105 2.000000
-0.021476 -0.339000 0.125332 -0.3105039 0.94209369 0.12667596 2.000000
-0.015425 -0.338359 0.132068 -0.19842996 0.95689878 0.21206195 2.000000
-0.003203 -0.338084 0.138263 -0.15748694 0.96688365 0.20083293 2.000000
