-0.499105 -0.195966 2.306172 0.9605422 -0.11929202 0.25125305 1.000000
-0.494245 -0.191801 2.286122 0.97185068 -0.12130296 0.20196993 1.000000
-0.490758 -0.193586 2.270772 0.97368966 0.05830498 0.22029292 2.000000
-0.484456 -0.203214 2.249257 0.96902717 0.17714003 0.17206903 2.000000
-0.481145 -0.198820 2.219319 0.95862865 0.24322091 0.14790095 2.000000
-0.472898 -0.210020 2.173390 0.98966616 0.04007401 0.13767702 2.000000
-0.468732 -0.205808 2.149800 0.97041883 0.11998598 0.20950096 2.000000
-0.464994 -0.207685 2.135975 0.96605878 0.22547295 0.12606497 2.000000
-0.462895 -0.209211 2.111622 0.97543881 0.21664196 0.03981699 2.000000
-0.461927 -0.210630 2.080403 0.98158018 0.18840304 0.03169601 2.000000
-0.460530 -0.212171 2.052174 0.97542228 0.20477206 0.08136202 2.000000
-0.457509 -0.213773 2.032826 0.90911604 0.36048902 0.20870001 2.000000
-0.453130 -0.215650 2.022572 0.87236426 0.36452511 0.3257331 2.000000
-0.448773 -0.217634 2.013325 0.92711029 0.25039008 0.27887509 2.000000
-0.444989 -0.219465 2.000020 0.97333993 0.10058699 0.20613499 2.000000
-0.438413 -0.222989 1.965840 0.98295919 0.06054801 0.17356603 2.000000
-0.427129 -0.229886 1.890584 0.95960279 0.17670396 0.21894795 2.000000
-0.423345 -0.231702 1.877308 0.97033205 0.15728301 0.18362401 2.000000
-0.420552 -0.233381 1.857503 0.99572151 0.03682302 0.08475104 2.000000
-0.419004 -0.234861 1.829610 0.99533428 -0.01992901 0.09440603 2.000000
-0.416173 -0.236570 1.810353 0.97789724 0.03189501 0.20663905 2.000000
-0.412091 -0.238523 1.799641 0.92484868 0.21287093 0.31518389 2.000000
-0.408094 -0.240400 1.788411 0.94902608 0.25535002 0.18478602 2.000000
-0.405217 -0.242032 1.768361 0.97482416 0.20821003 0.07979001 2.000000
-0.403257 -0.243497 1.741292 0.98217309 0.17350202 0.07234001 2.000000
-0.400838 -0.245222 1.720814 0.98008914 0.11339702 0.16299202 2.000000
-0.397550 -0.247007 1.708699 0.95519319 0.05575101 0.29068506 2.000000
-0.393712 -0.249113 1.697163 0.96375886 0.13874298 0.22785797 2.000000
-0.390065 -0.250898 1.680043 0.95567365 0.2775819 0.09816396 2.000000
-0.387601 -0.252378 1.656300 0.92085898 0.37928899 0.090325 2.000000
-0.384687 -0.253965 1.636006 0.88685247 0.44414924 0.12737407 2.000000
-0.381002 -0.255720 1.621541 0.88506435 0.42821017 0.18247507 2.000000
-0.377256 -0.257596 1.608204 0.93205898 0.289532 0.217801 2.000000
-0.370671 -0.267362 1.590687 0.93853283 0.23289096 0.25478995 2.000000
-0.366414 -0.263044 1.565144 0.90926809 0.37711504 0.17611302 2.000000
-0.362691 -0.270872 1.563466 0.90377003 0.39018701 0.17593701 2.000000
-0.355710 -0.268308 1.520192 0.90369219 0.39029508 0.17609704 2.000000
-0.351430 -0.270231 1.509968 0.80556406 0.55349804 0.21143902 2.000000
-0.347432 -0.272123 1.498067 0.91276755 0.39747724 0.09416606 2.000000
-0.345662 -0.273679 1.472066 0.97716228 0.20905706 0.03806601 2.000000
-0.343877 -0.275236 1.446187 0.96266033 0.23221008 0.13915305 2.000000
-0.339734 -0.277097 1.434987 0.8750986 0.42572281 0.2301359 2.000000
-0.335652 -0.278974 1.423512 0.84231698 0.48256599 0.240067 2.000000
-0.331548 -0.280851 1.411976 0.89469343 0.39951919 0.1997701 2.000000
-0.328321 -0.282575 1.394612 0.96369311 0.25201503 0.08822701 2.000000
-0.326856 -0.284116 1.367238 0.96662344 0.24632511 0.07044903 2.000000
-0.323987 -0.285764 1.347401 0.91578123 0.35301609 0.19163605 2.000000
-0.318288 -0.287046 1.337300 0.84269791 0.41245695 0.34603396 2.000000
-0.309728 -0.293012 1.288991 0.85724633 0.5148522 0.007479 2.000000
-0.310674 -0.294202 1.246022 0.86523338 0.50119822 -0.01309701 2.000000
-0.311544 -0.295438 1.203602 0.94361221 0.33070307 -0.015214 2.000000
-0.310971 -0.296842 1.170186 0.90125235 0.43317417 0.010215 2.000000
-0.309377 -0.298368 1.143117 0.87378901 0.48228001 0.06244 2.000000
-0.306119 -0.300138 1.126393 0.80143002 0.57479601 0.165286 2.000000
-0.301641 -0.302045 1.117329 0.76336992 0.59677694 0.24723197 2.000000
-0.297162 -0.303968 1.108174 0.83233698 0.48104999 0.27532899 2.000000
-0.292783 -0.305860 1.098469 0.79895124 0.45826614 0.38944712 2.000000
-0.287580 -0.307859 1.093892 0.57231515 0.58660316 0.57302015 2.000000
-0.281934 -0.309934 1.092061 0.60066633 0.59328333 0.5359243 2.000000
-0.276906 -0.311902 1.086323 0.87853276 0.39961189 0.26170693 2.000000
-0.273717 -0.313672 1.069234 0.95141052 0.28326215 0.12075007 2.000000
-0.271009 -0.315336 1.049031 0.922766 0.363028 0.129281 2.000000
-0.267453 -0.317151 1.034260 0.69650157 0.67734359 0.23683586 2.000000
-0.262067 -0.319166 1.030781 0.33454906 0.88897516 0.31273006 2.000000
-0.255643 -0.321332 1.033833 0.28755002 0.90599405 0.31062802 2.000000
-0.249593 -0.323469 1.034566 0.52094197 0.81909095 0.24022798 2.000000
-0.245168 -0.325483 1.026173 0.74828014 0.64352612 0.16109303 2.000000
-0.241399 -0.327344 1.013051 0.8060183 0.57303221 0.14821805 2.000000
-0.237477 -0.329099 0.999837 0.82641801 0.53050201 0.188682 2.000000
-0.233029 -0.331342 0.989308 0.71728918 0.63111716 0.29527507 2.000000
-0.228055 -0.333265 0.984700 0.56687622 0.73563029 0.37080915 2.000000
-0.222798 -0.335248 0.981801 0.61305315 0.71435618 0.33743308 2.000000
-0.211156 -0.340452 0.941151 0.77499914 0.62010611 0.12183902 2.000000
-0.207006 -0.342512 0.931172 0.49431877 0.8539976 0.16228692 2.000000
-0.200742 -0.344861 0.934773 0.11543096 0.97662269 0.18133894 2.000000
-0.192670 -0.346830 0.945119 0.2410859 0.96008858 0.14180094 2.000000
-0.186818 -0.348905 0.944478 0.52130986 0.85150377 0.05636799 2.000000
-0.184148 -0.350568 0.924092 0.65773987 0.75300785 0.018906 2.000000
-0.181401 -0.353086 0.902180 0.62322269 0.77971862 0.06026897 2.000000
-0.176747 -0.354246 0.896138 0.33202188 0.90673668 0.25998091 2.000000
-0.170575 -0.356351 0.897542 0.22074107 0.88631729 0.40708113 2.000000
-0.165814 -0.359617 0.900715 0.51313201 0.77080001 0.37757501 2.000000
-0.612218 -0.148038 2.529225 0.85434181 0.09899098 0.51019689 1.000000
-0.607419 -0.149976 2.521565 0.8578012 0.06823502 0.50943212 1.000000
-0.602666 -0.151899 2.513173 0.87871721 -0.004845 0.47731812 1.000000
-0.599774 -0.159711 2.507374 0.88905657 -0.03836102 0.45618729 1.000000
-0.593694 -0.155683 2.494893 0.91503689 -0.05875599 0.39906795 1.000000
-0.586797 -0.165357 2.477498 0.88573651 -0.11029394 0.45089475 1.000000
-0.574941 -0.177091 2.452504 0.87454805 -0.08761701 0.47695803 1.000000
-0.566892 -0.167173 2.438374 0.89012838 0.01740901 0.4553772 1.000000
-0.563878 -0.175016 2.433156 0.88503622 0.001687 0.46551911 1.000000
-0.553342 -0.172910 2.411335 0.8654055 -0.02962398 0.50019571 1.000000
-0.548711 -0.174848 2.403767 0.85614914 -0.04784401 0.51450908 1.000000
-0.539632 -0.178724 2.386494 0.88859977 0.007752 0.45861788 1.000000
-0.536534 -0.186582 2.382008 0.89215003 0.074844 0.44549601 1.000000
-0.532033 -0.188505 2.373066 0.91787553 0.05666097 0.3928028 1.000000
-0.526341 -0.184431 2.357991 0.91929576 0.018253 0.3931439 1.000000
-0.521916 -0.186338 2.348652 0.87178454 -0.07217396 0.48454374 1.000000
-0.507550 -0.192243 2.327809 0.84679313 -0.011498 0.53179808 1.000000
-0.502996 -0.194135 2.319172 0.91302516 -0.09779702 0.39600607 1.000000
-0.495671 -0.197736 2.290181 0.97291863 -0.03097599 0.22906291 1.000000
-0.492017 -0.199552 2.275898 0.96134408 0.008291 0.27522502 2.000000
-0.488065 -0.201398 2.263722 0.9580322 0.01461 0.28628806 2.000000
-0.481443 -0.204938 2.230855 0.96537107 0.20917802 0.15589501 2.000000
-0.478185 -0.206678 2.214009 0.97111841 0.17295707 0.16436207 2.000000
-0.475148 -0.208387 2.196034 0.9899939 0.07478699 0.11966199 2.000000
-0.469731 -0.211774 2.156056 0.96538836 0.12620305 0.22825009 2.000000
-0.465634 -0.213697 2.144703 0.96184971 0.15305695 0.22675693 2.000000
-0.462506 -0.215391 2.127736 0.99175081 0.09819398 0.08239098 2.000000
-0.461202 -0.216871 2.099049 0.99292101 0.113357 0.035469 2.000000
-0.460111 -0.218427 2.068928 0.9797029 0.19283498 0.05474399 2.000000
-0.457433 -0.219999 2.046986 0.91377026 0.38014611 0.14322304 2.000000
-0.449231 -0.223676 2.023274 0.89800599 0.369454 0.238933 2.000000
-0.445752 -0.225492 2.008198 0.97895246 0.11548705 0.16827008 2.000000
-0.443669 -0.233243 1.997212 0.98444182 0.04991499 0.16847197 2.000000
-0.439328 -0.228971 1.973805 0.97346464 0.12408595 0.19227393 2.000000
-0.436170 -0.230756 1.957020 0.98159258 0.13875094 0.13124094 2.000000
-0.430989 -0.234067 1.915486 0.98231363 0.13893495 0.12552695 2.000000
-0.427754 -0.235807 1.898640 0.95365674 0.23767493 0.18452495 2.000000
-0.424031 -0.237699 1.885396 0.96741831 0.18712706 0.17054405 2.000000
-0.421102 -0.239377 1.866627 0.99536317 0.04960601 0.08241001 2.000000
-0.419789 -0.240873 1.837453 0.99743525 -0.005803 0.07133902 2.000000
-0.417333 -0.242521 1.815602 0.97538054 0.04747398 0.2153579 2.000000
-0.413167 -0.244459 1.805501 0.90015181 0.17477796 0.39897291 2.000000
-0.408650 -0.246396 1.796956 0.92718488 0.22742597 0.29766696 2.000000
-0.405164 -0.248228 1.782704 0.96758134 0.21138407 0.13821405 2.000000
-0.402867 -0.255964 1.773488 0.98251058 0.17272993 0.06955097 2.000000
-0.401433 -0.251340 1.731648 0.98600211 0.14542002 0.08156501 2.000000
-0.398671 -0.253004 1.713704 0.97076673 0.11573197 0.21028094 2.000000
-0.394750 -0.255277 1.701710 0.94680895 0.12786999 0.29529998 2.000000
-0.387090 -0.258619 1.673390 0.95653367 0.25284691 0.14529895 2.000000
-0.384114 -0.260267 1.654133 0.9300458 0.34645893 0.12239697 2.000000
-0.380841 -0.261976 1.636708 0.92958631 0.33823111 0.14652305 2.000000
-0.377668 -0.263685 1.619496 0.96085514 0.22735703 0.15832302 2.000000
-0.374463 -0.265470 1.603108 0.96135069 0.16451995 0.22076693 2.000000
-0.366544 -0.269193 1.577656 0.90404657 0.35318022 0.24075615 2.000000
-0.355626 -0.274473 1.533864 0.87242799 0.44997399 0.190769 2.000000
-0.351354 -0.276380 1.523671 0.80634341 0.53178327 0.25887613 2.000000
-0.346898 -0.278318 1.514577 0.90484289 0.38945695 0.17199598 2.000000
-0.344525 -0.279981 1.492390 0.98272833 0.18293306 0.02793801 2.000000
-0.344525 -0.281293 1.455098 0.98968455 0.12716107 0.06598904 2.000000
-0.340695 -0.283124 1.441579 0.94009199 0.132912 0.313945 2.000000
-0.336476 -0.285016 1.431782 0.91561984 0.19162597 0.35343994 2.000000
-0.332151 -0.286893 1.421315 0.9181935 0.26708885 0.29254784 2.000000
-0.328351 -0.288724 1.408192 0.95114035 0.2728961 0.14442905 2.000000
-0.326116 -0.290357 1.384755 0.95453483 0.28973295 0.07012899 2.000000
-0.323461 -0.291807 1.361012 0.91894439 0.38206416 0.09781704 2.000000
-0.320546 -0.293607 1.344777 0.91225081 0.34415093 0.22216795 2.000000
-0.316190 -0.295621 1.335774 0.85829776 0.28196692 0.42874188 2.000000
-0.314954 -0.289640 1.330342 0.85285987 0.30048295 0.42701293 2.000000
-0.311193 -0.297590 1.329884 0.87503778 0.3988359 0.27429693 2.000000
-0.310392 -0.291578 1.321797 0.99190207 0.032858 0.12268101 2.000000
-0.306462 -0.299558 1.322407 0.79557447 0.59955335 0.08716105 2.000000
-0.303502 -0.301252 1.303792 0.71360595 0.69876795 0.049899 2.000000
-0.306615 -0.303556 1.210499 0.87801795 0.47838597 -0.01521 2.000000
-0.306523 -0.304883 1.174031 0.84319176 0.53749185 0.011409 2.000000
-0.304380 -0.306501 1.150410 0.78176223 0.62002318 0.06647602 2.000000
-0.300534 -0.308332 1.137318 0.72463683 0.67674884 0.13004797 2.000000
-0.296544 -0.310163 1.125172 0.77612577 0.61440382 0.14190396 2.000000
-0.292897 -0.311979 1.110951 0.79038442 0.58271331 0.1890441 2.000000
-0.288213 -0.313886 1.103047 0.65441009 0.6658011 0.35840805 2.000000
-0.282689 -0.315977 1.100514 0.52974992 0.68924689 0.49427092 2.000000
-0.277387 -0.317975 1.096486 0.79446716 0.47616709 0.37694407 2.000000
-0.273297 -0.319837 1.084950 0.91060589 0.37725595 0.16874498 2.000000
-0.270017 -0.321622 1.068440 0.80365028 0.5719712 0.16430206 2.000000
-0.265676 -0.323530 1.058522 0.58588197 0.78255295 0.21060199 2.000000
-0.260182 -0.325544 1.055653 0.42462601 0.86949602 0.25232801 2.000000
-0.254262 -0.327665 1.055592 0.35062412 0.8872213 0.2998351 2.000000
-0.248677 -0.329694 1.053364 0.64589124 0.68327926 0.34052013 2.000000
-0.244077 -0.331617 1.044972 0.82573718 0.52431811 0.20796304 2.000000
-0.240636 -0.333570 1.030690 0.89549108 0.41441504 0.16234501 2.000000
-0.236913 -0.336912 1.014943 0.89255291 0.41762896 0.17010398 2.000000
-0.233007 -0.337842 1.001698 0.80731321 0.52210214 0.27505407 2.000000
-0.228612 -0.339200 0.996174 0.621327 0.659137 0.423664 2.000000
-0.223622 -0.341489 0.993641 0.59448785 0.66830683 0.44715789 2.000000
-0.218488 -0.343595 0.988759 0.72742897 0.59698697 0.33830999 2.000000
-0.213704 -0.345289 0.978078 0.84122599 0.50503399 0.193079 2.000000
-0.210134 -0.347043 0.963124 0.72168329 0.67158027 0.16778907 2.000000
-0.204717 -0.348722 0.957173 0.29181693 0.93226976 0.21381295 2.000000
-0.197515 -0.350995 0.965077 0.04166299 0.96548684 0.25709796 2.000000
-0.190274 -0.353269 0.973103 0.14434202 0.92624611 0.34818604 2.000000
-0.184369 -0.355359 0.972920 0.52426938 0.79553058 0.30376422 2.000000
-0.180036 -0.357267 0.962971 0.77459379 0.62433483 0.10104697 2.000000
-0.177671 -0.358961 0.940846 0.74802639 0.66120435 0.05714303 2.000000
-0.174436 -0.360731 0.924245 0.59139824 0.79916733 0.10760904 2.000000
-0.169492 -0.363157 0.919423 0.42531789 0.88637277 0.18288795 2.000000
-0.163587 -0.366025 0.922475 0.35058512 0.91144032 0.21532908 2.000000
-0.157003 -0.369291 0.926381 0.4412088 0.8808746 0.17144892 2.000000
-0.197568 0.232058 0.651570 0.83343015 -0.53177009 0.15038203 2.000000
-0.609128 -0.155927 2.524647 0.87385125 -0.03411301 0.48499514 1.000000
-0.597058 -0.167539 2.501118 0.90953669 -0.04823798 0.41281486 1.000000
-0.584119 -0.173215 2.470753 0.8903314 -0.06260703 0.4509882 1.000000
-0.554959 -0.178831 2.414418 0.89358924 0.06097402 0.44472512 1.000000
-0.550397 -0.180768 2.406239 0.88152907 0.007877 0.47206404 1.000000
-0.547597 -0.188581 2.400319 0.87685883 -0.03465999 0.47949691 1.000000
-0.541242 -0.184629 2.389607 0.86827188 -0.009487 0.49599793 1.000000
-0.527921 -0.190366 2.361409 0.93404923 -0.09839702 0.34332209 1.000000
-0.523702 -0.192228 2.350514 0.87865643 -0.11099305 0.46437423 1.000000
-0.518994 -0.194196 2.343007 0.80644206 -0.048314 0.58933604 1.000000
-0.514058 -0.196165 2.336964 0.79734082 0.022009 0.60312786 1.000000
-0.510938 -0.204023 2.332539 0.86691701 -0.038878 0.496934 1.000000
-0.504720 -0.200040 2.321248 0.91099677 -0.08664098 0.4032099 1.000000
-0.500592 -0.201902 2.309834 0.9525392 -0.03602301 0.30227706 1.000000
-0.496884 -0.203702 2.295735 0.97516303 0.012854 0.22111501 1.000000
-0.493390 -0.205472 2.280324 0.96535858 -0.01744699 0.26034289 2.000000
-0.491056 -0.213254 2.270955 0.95784277 -0.014576 0.28692293 2.000000
-0.485509 -0.209196 2.255665 0.95747897 0.048811 0.28434399 2.000000
-0.481908 -0.211011 2.241108 0.96842154 0.14665993 0.2016199 2.000000
-0.479100 -0.218809 2.234547 0.9812029 0.11691099 0.15353398 2.000000
-0.473592 -0.216062 2.182026 0.98999069 0.08748197 0.11074897 2.000000
-0.470517 -0.217817 2.163990 0.95721007 0.21404002 0.19477101 2.000000
-0.466558 -0.219617 2.151387 0.96050207 0.17073401 0.21974002 2.000000
-0.463338 -0.221403 2.135396 0.99215824 -0.03633201 0.11959103 2.000000
-0.461614 -0.222974 2.109669 0.99615117 -0.06181701 0.06214101 2.000000
-0.460073 -0.224592 2.083027 0.99263434 0.08850503 0.08272803 2.000000
-0.457090 -0.226255 2.063038 0.92087353 0.35246382 0.16661692 2.000000
-0.449414 -0.229825 2.035634 0.89344174 0.40563088 0.19293894 2.000000
-0.446294 -0.231550 2.017842 0.98627746 0.11988806 0.11350605 2.000000
-0.440320 -0.235013 1.981404 0.96975149 0.09319005 0.22560511 2.000000
-0.436696 -0.236814 1.967305 0.974477 0.136492 0.178226 2.000000
-0.433736 -0.238538 1.948506 0.97973789 0.15963798 0.12095199 2.000000
-0.431104 -0.240171 1.927785 0.96816781 0.21070196 0.13511397 2.000000
-0.424420 -0.243726 1.895680 0.95200065 0.25456691 0.16997194 2.000000
-0.421475 -0.245466 1.877308 0.98700902 0.138538 0.081366 2.000000
-0.420240 -0.246976 1.847859 0.99438272 0.09292497 0.05067499 2.000000
-0.418248 -0.248502 1.822163 0.98248017 0.12877802 0.13471802 2.000000
-0.414304 -0.250303 1.809834 0.92167779 0.16408996 0.35154592 2.000000
-0.409772 -0.252302 1.801991 0.89411821 0.15988304 0.4183181 2.000000
-0.405652 -0.254239 1.792378 0.95974807 0.17884101 0.21656302 2.000000
-0.401357 -0.257505 1.746235 0.98023409 0.18888102 0.05886501 2.000000
-0.399152 -0.259107 1.721608 0.97237354 0.19730211 0.12474607 2.000000
-0.395513 -0.260862 1.706257 0.94907196 0.18441599 0.25544699 2.000000
-0.387693 -0.264631 1.682759 0.95919202 0.156232 0.235674 2.000000
-0.384336 -0.266370 1.666768 0.96578642 0.20528809 0.15847207 2.000000
-0.381169 -0.268064 1.648915 0.97952775 0.13631696 0.14813196 2.000000
-0.375249 -0.271482 1.610951 0.97851988 0.12653698 0.16274898 2.000000
-0.372457 -0.279310 1.604085 0.94895892 0.18900598 0.25249498 2.000000
-0.367200 -0.275205 1.586751 0.91281796 0.25889899 0.31580799 2.000000
-0.358884 -0.278852 1.563405 0.90026449 0.39317121 0.1869231 2.000000
-0.355374 -0.280652 1.548543 0.89266364 0.41285283 0.18084293 2.000000
-0.351560 -0.282484 1.535542 0.88261427 0.40349212 0.24121807 2.000000
-0.347295 -0.284406 1.525258 0.94060441 0.26894512 0.20720009 2.000000
-0.344220 -0.286146 1.507374 0.98876637 0.13867905 0.05576002 2.000000
-0.343946 -0.287504 1.471516 0.99215749 0.12300894 0.02218799 2.000000
-0.341947 -0.289030 1.445851 0.97680861 0.12840795 0.17133693 2.000000
-0.337895 -0.290937 1.435628 0.9116467 0.07236898 0.40455287 2.000000
-0.333356 -0.292890 1.427174 0.88927511 0.15951102 0.42865605 2.000000
-0.328908 -0.294828 1.418294 0.91397579 0.28361194 0.29019393 2.000000
-0.325368 -0.296720 1.404835 0.92323056 0.36592522 0.11723507 2.000000
-0.322736 -0.298185 1.381673 0.88763302 0.45095801 0.093512 2.000000
-0.319501 -0.299329 1.360158 0.89646746 0.43347722 0.09188905 2.000000
-0.317037 -0.301633 1.343617 0.88611268 0.42398085 0.18720193 2.000000
-0.312436 -0.303586 1.335347 0.80552696 0.43779298 0.39932898 2.000000
-0.307599 -0.305524 1.328450 0.80656895 0.41764397 0.41835397 2.000000
-0.302907 -0.307462 1.320637 0.85796746 0.45778324 0.23308012 2.000000
-0.301549 -0.311643 1.218129 0.82346915 0.56733011 -0.005925 2.000000
-0.300771 -0.313108 1.186024 0.8007032 0.59875815 0.019054 2.000000
-0.298322 -0.314741 1.164265 0.76949127 0.63551422 0.06328402 2.000000
-0.294797 -0.316526 1.149220 0.80412774 0.58651581 0.09683897 2.000000
-0.291509 -0.318311 1.132741 0.84612369 0.51881381 0.12209396 2.000000
-0.287923 -0.320081 1.118001 0.81418113 0.53872909 0.21651803 2.000000
-0.283223 -0.322034 1.110280 0.74483008 0.52327705 0.41401604 2.000000
-0.278279 -0.324003 1.104115 0.85816259 0.26213088 0.44141179 2.000000
-0.273892 -0.325910 1.094441 0.92629442 0.16520908 0.33865115 2.000000
-0.269834 -0.327741 1.082631 0.88259936 0.36574115 0.29538412 2.000000
-0.265210 -0.329664 1.074513 0.68170997 0.65571997 0.32450399 2.000000
-0.259992 -0.331663 1.069905 0.55506294 0.70432092 0.44253495 2.000000
-0.254644 -0.333707 1.066273 0.59908003 0.61873403 0.50820402 2.000000
-0.249379 -0.335737 1.062153 0.73525477 0.42668287 0.52663284 2.000000
-0.245107 -0.338483 1.056050 0.84648838 0.40887118 0.34100115 2.000000
-0.240682 -0.341917 1.046132 0.88345027 0.41301113 0.22121807 2.000000
-0.236722 -0.342740 1.030812 0.89153627 0.42098213 0.16714405 2.000000
-0.233342 -0.343549 1.014393 0.86420655 0.45779876 0.20872789 2.000000
-0.229245 -0.345304 1.005238 0.75117018 0.54663313 0.37004809 2.000000
-0.224065 -0.347394 1.001118 0.61836382 0.59474982 0.51371085 2.000000
-0.218755 -0.349454 0.997029 0.65173044 0.5849114 0.48283133 2.000000
-0.213437 -0.351163 0.990742 0.69872323 0.65103522 0.2965451 2.000000
-0.208631 -0.353025 0.982930 0.51544007 0.82676111 0.22536103 2.000000
-0.203328 -0.355024 0.978932 0.40013708 0.87100118 0.28503906 2.000000
-0.197377 -0.357160 0.979085 0.25913505 0.81118515 0.5242401 2.000000
-0.191472 -0.359266 0.978871 0.30695608 0.55645515 0.7720982 2.000000
-0.185796 -0.361295 0.977131 0.57886008 0.29629704 0.75969011 2.000000
-0.180600 -0.363294 0.972523 0.79551702 0.34947901 0.49499201 2.000000
-0.175893 -0.365262 0.964863 0.78936946 0.56326562 0.24418783 2.000000
-0.171384 -0.367292 0.956349 0.67481899 0.72074299 0.158584 2.000000
-0.166593 -0.369520 0.949940 0.530199 0.826088 0.190965 2.000000
-0.161107 -0.372007 0.947713 0.41807096 0.88282793 0.21408298 2.000000
-0.155614 -0.374509 0.947316 0.44645878 0.85955157 0.24868788 2.000000
-0.152051 -0.371961 0.924611 0.43999692 0.88627585 0.14462998 2.000000
-0.148862 -0.377271 0.945759 0.39884498 0.88685196 0.23327299 2.000000
-0.029302 0.192172 -0.071849 0.56327466 -0.8245865 0.05271397 2.000000
-0.601483 -0.165647 2.509785 0.86900489 -0.07268399 0.48943594 1.000000
-0.590131 -0.177289 2.483418 0.92181728 -0.02217101 0.38699012 1.000000
-0.588567 -0.171308 2.480031 0.91279872 -0.05298698 0.40495787 1.000000
-0.562718 -0.188779 2.430501 0.84557372 -0.02742399 0.53315383 1.000000
-0.560979 -0.182859 2.427449 0.89281802 0.051731 0.44743701 1.000000
-0.557935 -0.190687 2.423939 0.87972681 0.08785798 0.4672919 1.000000
-0.551961 -0.186689 2.410054 0.90949496 0.062229 0.41103098 1.000000
-0.542928 -0.190565 2.392445 0.84219829 -0.01844901 0.53885218 1.000000
-0.538083 -0.192518 2.385762 0.8645526 0.02865399 0.50172477 1.000000
-0.533528 -0.194410 2.376912 0.92159985 -0.08589899 0.37851694 1.000000
-0.529607 -0.196256 2.363789 0.92267974 -0.22134394 0.31570391 1.000000
-0.525533 -0.198102 2.351735 0.87730824 -0.16638605 0.45016212 1.000000
-0.520742 -0.200071 2.344899 0.76116481 -0.02242099 0.64817084 1.000000
-0.506436 -0.205945 2.323506 0.89890511 -0.05599101 0.43455105 1.000000
-0.502057 -0.207822 2.313679 0.92259868 0.01774399 0.38535287 1.000000
-0.498006 -0.209684 2.301991 0.96421951 0.03399002 0.26291714 1.000000
-0.486959 -0.215146 2.259633 0.93834413 0.031831 0.34423405 2.000000
-0.480077 -0.224790 2.241566 0.97544511 0.034599 0.21750803 2.000000
-0.476346 -0.220487 2.214772 0.99184639 0.06371003 0.11037104 2.000000
-0.473943 -0.222150 2.193074 0.97895461 0.15492994 0.13283295 2.000000
-0.470723 -0.223920 2.176045 0.94027705 0.29184202 0.17523501 2.000000
-0.467168 -0.225690 2.160725 0.96670095 0.19366899 0.16727699 2.000000
-0.464597 -0.227323 2.140156 0.99365191 -0.06908899 0.08878399 2.000000
-0.462903 -0.228879 2.114216 0.98722862 -0.13937995 0.07715497 2.000000
-0.460759 -0.230573 2.091511 0.98923087 0.04699699 0.13861298 2.000000
-0.457311 -0.232465 2.075337 0.92263575 0.32223291 0.21191794 2.000000
-0.453305 -0.234159 2.062489 0.90169129 0.37558412 0.21421807 2.000000
-0.449506 -0.235975 2.048787 0.94455416 0.28393105 0.16492603 2.000000
-0.444600 -0.239240 2.004506 0.98878077 0.07009198 0.13190797 2.000000
-0.441457 -0.240995 1.987507 0.97407382 0.07097399 0.21480896 2.000000
-0.437635 -0.242811 1.974660 0.97113711 0.06420901 0.22971703 2.000000
-0.434339 -0.244581 1.958058 0.98542903 0.018427 0.169086 2.000000
-0.431508 -0.246290 1.938618 0.983502 0.099633 0.150987 2.000000
-0.428350 -0.248044 1.921284 0.96248973 0.21190394 0.16944095 2.000000
-0.424832 -0.249830 1.906392 0.95405295 0.22827299 0.19409899 2.000000
-0.421544 -0.251584 1.890187 0.97829862 0.17590093 0.10950196 2.000000
-0.419858 -0.253126 1.863850 0.97890745 0.19811409 0.04991002 2.000000
-0.418248 -0.254651 1.835957 0.95601027 0.28359708 0.07494702 2.000000
-0.415166 -0.256238 1.816517 0.92323286 0.33783695 0.18304997 2.000000
-0.410909 -0.258069 1.805775 0.89804076 0.27050993 0.34691091 2.000000
-0.406568 -0.260175 1.797902 0.92312817 0.19050204 0.33398106 2.000000
-0.402982 -0.262067 1.785817 0.97229746 0.18791609 0.13901507 2.000000
-0.400838 -0.263807 1.762684 0.97466302 0.21485901 0.06219 2.000000
-0.398900 -0.265180 1.735097 0.96307543 0.25748612 0.07865504 2.000000
-0.395978 -0.266645 1.713399 0.95460291 0.25953697 0.14619799 2.000000
-0.389417 -0.276578 1.696736 0.95344137 0.16668306 0.2513291 2.000000
-0.385114 -0.272382 1.675770 0.97638901 0.103668 0.189519 2.000000
-0.381925 -0.274137 1.657735 0.98705488 0.006792 0.16023898 2.000000
-0.378926 -0.275785 1.638692 0.98499177 0.011981 0.17218496 2.000000
-0.376683 -0.283567 1.628407 0.97529606 0.09435001 0.19973901 2.000000
-0.368230 -0.281156 1.593098 0.90293185 0.23972596 0.35671494 2.000000
-0.363668 -0.283079 1.584370 0.87702217 0.32030906 0.35809807 2.000000
-0.359220 -0.284986 1.574940 0.91099446 0.31608816 0.26491013 2.000000
-0.355481 -0.286817 1.561329 0.95007794 0.24229698 0.19658099 2.000000
-0.352063 -0.288572 1.545521 0.95243198 0.196063 0.233308 2.000000
-0.348004 -0.290418 1.533833 0.94268501 0.197834 0.268713 2.000000
-0.344434 -0.292249 1.519215 0.98339197 0.146985 0.106469 2.000000
-0.343206 -0.293745 1.489461 0.98994445 0.13991906 0.02080001 2.000000
-0.342366 -0.295133 1.456044 0.97755582 0.20202496 0.05975399 2.000000
-0.339154 -0.296903 1.439931 0.94252825 0.21903906 0.25231407 2.000000
-0.334821 -0.298795 1.431141 0.87070077 0.17355695 0.46017188 2.000000
-0.330091 -0.300809 1.424550 0.8402014 0.24549712 0.48352123 2.000000
-0.325658 -0.303022 1.417683 0.87222962 0.38067783 0.30708286 2.000000
-0.321591 -0.304929 1.405690 0.87555997 0.46219399 0.140611 2.000000
-0.318402 -0.305997 1.383595 0.87856334 0.46938618 0.08833503 2.000000
-0.316045 -0.307554 1.361104 0.88929209 0.45007005 0.08121901 2.000000
-0.312833 -0.309659 1.346028 0.82250642 0.53461627 0.1940841 2.000000
-0.308240 -0.311582 1.337636 0.7508858 0.57784784 0.31978491 2.000000
-0.303372 -0.313535 1.330922 0.74007018 0.58150614 0.33785608 2.000000
-0.298604 -0.315488 1.323628 0.81088454 0.54696269 0.20808188 2.000000
-0.299497 -0.309263 1.304951 0.85354896 0.50514897 0.12758799 2.000000
-0.294194 -0.321393 1.203084 0.82270329 0.5683842 0.009935 2.000000
-0.292798 -0.322919 1.174763 0.82983255 0.5561747 0.04525098 2.000000
-0.290738 -0.324537 1.150654 0.89105994 0.44576397 0.08547899 2.000000
-0.287824 -0.326246 1.131795 0.89943007 0.40658003 0.16036901 2.000000
-0.284055 -0.328077 1.118275 0.89834895 0.35831998 0.25411799 2.000000
-0.279729 -0.329938 1.108143 0.92177313 0.12641102 0.36654405 2.000000
-0.275495 -0.331830 1.097584 0.91635626 -0.02029501 0.39984911 2.000000
-0.271093 -0.333738 1.088032 0.88947681 0.08959198 0.4481119 2.000000
-0.266133 -0.335706 1.081837 0.7562208 0.35279491 0.55105885 2.000000
-0.260923 -0.337736 1.077412 0.67503195 0.42446197 0.60345995 2.000000
-0.255803 -0.340101 1.072743 0.69229605 0.39436003 0.60432305 2.000000
-0.245542 -0.344724 1.062428 0.74915336 0.43254621 0.50167024 2.000000
-0.241246 -0.346464 1.057118 0.81221544 0.47856626 0.33358718 2.000000
-0.236966 -0.348707 1.048512 0.89298223 0.4031311 0.20017005 2.000000
-0.233632 -0.349592 1.030049 0.88604598 0.42558999 0.183836 2.000000
-0.229528 -0.351255 1.015919 0.80073294 0.54971196 0.23799898 2.000000
-0.225064 -0.353437 1.008626 0.6303819 0.6753249 0.38282494 2.000000
-0.219480 -0.355390 1.005055 0.46723595 0.78253592 0.41149496 2.000000
-0.213277 -0.357221 1.004170 0.30977007 0.8956582 0.31912207 2.000000
-0.207204 -0.359342 1.004964 0.43119016 0.87104033 0.23529509 2.000000
-0.202207 -0.361341 0.999135 0.61037005 0.76524206 0.20458002 2.000000
-0.197873 -0.363203 0.989033 0.754587 0.599258 0.267373 2.000000
-0.192899 -0.365186 0.983052 0.62621573 0.4712658 0.62109774 2.000000
-0.187505 -0.367216 0.979695 0.61131824 0.28286111 0.7391073 2.000000
-0.182202 -0.369245 0.975758 0.6529952 0.30305609 0.69408521 2.000000
-0.176969 -0.371259 0.971394 0.61771242 0.53527036 0.57612239 2.000000
-0.171582 -0.373456 0.968464 0.47568489 0.80443082 0.35582992 2.000000
-0.165929 -0.375822 0.966054 0.43538901 0.86504501 0.249266 2.000000
-0.160672 -0.377531 0.962361 0.46584698 0.85278096 0.23611699 2.000000
-0.155301 -0.379423 0.958333 0.44497115 0.85480329 0.26704309 2.000000
-0.149755 -0.381040 0.955403 0.38217899 0.87529198 0.29631599 2.000000
-0.609502 -0.175504 2.521321 0.85481992 -0.06763699 0.51449795 1.000000
-0.598706 -0.173475 2.503651 0.87369529 -0.04983602 0.48391416 1.000000
-0.594396 -0.175397 2.494130 0.91473696 -0.006598 0.40399598 1.000000
-0.585721 -0.179227 2.473683 0.90638084 0.008254 0.42238093 1.000000
-0.581204 -0.181119 2.464222 0.90360157 0.009121 0.4282768 1.000000
-0.576627 -0.182996 2.454854 0.89001495 -0.03377 0.45467898 1.000000
-0.567433 -0.186826 2.437794 0.8409449 -0.11572699 0.52860093 1.000000
-0.553464 -0.192579 2.414998 0.92296727 0.03286001 0.38347311 1.000000
-0.549306 -0.194440 2.403492 0.91220227 -0.03546901 0.40820212 1.000000
-0.539838 -0.198408 2.388112 0.84487013 -0.08218401 0.52862108 1.000000
-0.535321 -0.200345 2.378865 0.91110245 -0.22633711 0.34447617 1.000000
-0.533429 -0.208021 2.365040 0.9252949 -0.21374198 0.31327897 1.000000
-0.527433 -0.204008 2.352467 0.86868159 -0.20870214 0.4492613 1.000000
-0.522519 -0.205976 2.346638 0.71465508 -0.05890801 0.69699208 1.000000
-0.517430 -0.207975 2.342000 0.7368662 0.007114 0.67600118 1.000000
-0.512616 -0.209928 2.335255 0.84558942 0.008491 0.53376627 1.000000
-0.508054 -0.211881 2.326619 0.89424177 0.02916699 0.44663289 1.000000
-0.499303 -0.215681 2.307301 0.95978637 0.006458 0.28065711 1.000000
-0.495702 -0.217466 2.292561 0.97765112 0.003483 0.21020503 1.000000
-0.492368 -0.219221 2.276021 0.97142901 0.01479 0.236869 2.000000
-0.488393 -0.221067 2.263569 0.93690268 0.04306299 0.34692788 2.000000
-0.484029 -0.222928 2.253590 0.9375386 0.07242897 0.34025786 2.000000
-0.474637 -0.228177 2.202137 0.98767646 0.03032201 0.15354407 2.000000
-0.470944 -0.230039 2.188496 0.94484888 0.24005997 0.22278197 2.000000
-0.467427 -0.231809 2.173237 0.98317272 0.13506996 0.12299396 2.000000
-0.465772 -0.233335 2.146107 0.9922099 -0.11107499 0.05640799 2.000000
-0.464376 -0.234846 2.117787 0.98524689 -0.14165598 0.09603199 2.000000
-0.461682 -0.236585 2.098500 0.98220741 0.03404301 0.18468808 2.000000
-0.457967 -0.238401 2.085133 0.93218731 0.24121808 0.26989009 2.000000
-0.453817 -0.240293 2.073231 0.92239609 0.29545803 0.24877702 2.000000
-0.449941 -0.242078 2.059742 0.97078024 0.17012304 0.16924504 2.000000
-0.447141 -0.243741 2.039692 0.98813447 0.11335805 0.10363505 2.000000
-0.445066 -0.245344 2.015248 0.98779724 0.12702003 0.09012502 2.000000
-0.442357 -0.247007 1.995167 0.97373982 0.17807197 0.14184897 2.000000
-0.438871 -0.248792 1.980031 0.97848716 0.04493801 0.20135403 2.000000
-0.436795 -0.256513 1.969014 0.9863354 0.007714 0.16456907 2.000000
-0.432553 -0.252286 1.945180 0.98447601 -0.022283 0.174099 2.000000
-0.429196 -0.254056 1.929219 0.97379941 0.09009104 0.20880209 2.000000
-0.425572 -0.255872 1.914998 0.96788347 0.12438106 0.21847411 2.000000
-0.422147 -0.257642 1.899495 0.98260164 0.09000797 0.16245794 2.000000
-0.419461 -0.259336 1.879872 0.98183302 0.160558 0.101119 2.000000
-0.417226 -0.260999 1.857167 0.94291003 0.32336301 0.079731 2.000000
-0.414655 -0.262601 1.834828 0.89522865 0.43416883 0.10031496 2.000000
-0.411397 -0.264127 1.815999 0.88668491 0.42739096 0.17642798 2.000000
-0.407445 -0.266004 1.803700 0.90136511 0.35034504 0.25455703 2.000000
-0.403470 -0.268064 1.793965 0.95011789 0.22275797 0.21829997 2.000000
-0.400441 -0.269956 1.777394 0.97443715 0.20186503 0.09860402 2.000000
-0.398275 -0.271390 1.751973 0.96870717 0.23704904 0.07358101 2.000000
-0.395742 -0.272657 1.726430 0.96161833 0.25487709 0.10162604 2.000000
-0.392881 -0.274625 1.708668 0.95272387 0.23915497 0.18740897 2.000000
-0.386098 -0.278379 1.682332 0.9859749 0.005768 0.16679398 2.000000
-0.383123 -0.280042 1.662526 0.98058994 -0.10981299 0.16243299 2.000000
-0.380155 -0.281751 1.644063 0.97962934 -0.07602003 0.18586906 2.000000
-0.373983 -0.291379 1.621205 0.95661225 0.16873504 0.23753206 2.000000
-0.369252 -0.287183 1.599995 0.907304 0.272395 0.320313 2.000000
-0.364713 -0.289106 1.591389 0.84496501 0.368968 0.38716501 2.000000
-0.360112 -0.291044 1.583180 0.91055575 0.28526692 0.29918392 2.000000
-0.356282 -0.292829 1.569752 0.97192526 0.13279904 0.19423105 2.000000
-0.353124 -0.294568 1.552083 0.9723303 0.06161602 0.22533807 2.000000
-0.349286 -0.296415 1.539052 0.95003036 0.03641601 0.31002612 2.000000
-0.345143 -0.298292 1.528065 0.96803401 0.061192 0.24324 2.000000
-0.342534 -0.299955 1.507435 0.98198076 0.18122096 0.05359799 2.000000
-0.341413 -0.301404 1.476552 0.9565361 0.28901903 0.038816 2.000000
-0.339368 -0.302946 1.451680 0.92352387 0.37190595 0.09375299 2.000000
-0.335881 -0.304685 1.436696 0.90050796 0.35787698 0.24700099 2.000000
-0.331235 -0.306669 1.428670 0.83074665 0.28712688 0.4768838 2.000000
-0.326474 -0.308805 1.423115 0.78611613 0.30947005 0.53502309 2.000000
-0.321515 -0.310880 1.417225 0.84303567 0.41417684 0.34314487 2.000000
-0.317327 -0.312604 1.405690 0.87628579 0.45652889 0.15396296 2.000000
-0.314298 -0.314039 1.385487 0.88948407 0.44983803 0.08039801 2.000000
-0.311849 -0.315931 1.365315 0.86430563 0.49191479 0.10485996 2.000000
-0.308080 -0.317747 1.351765 0.79505063 0.56932774 0.2091899 2.000000
-0.303495 -0.319669 1.343312 0.76062097 0.57371098 0.30382799 2.000000
-0.298688 -0.321622 1.336262 0.79345887 0.51136292 0.33004695 2.000000
-0.294141 -0.323560 1.327626 0.857189 0.471412 0.207359 2.000000
-0.295400 -0.317258 1.306630 0.84190991 0.53583694 0.06376899 2.000000
-0.290555 -0.325330 1.312886 0.85537514 0.50712408 0.10563402 2.000000
-0.294316 -0.318723 1.276356 0.85550041 0.51777225 0.005562 2.000000
-0.284185 -0.334165 1.130543 0.91686263 0.35364586 0.18519592 2.000000
-0.280721 -0.335935 1.115132 0.93178803 0.28516201 0.22461901 2.000000
-0.277036 -0.337766 1.101094 0.93882522 0.21836305 0.26631706 2.000000
-0.272679 -0.339643 1.091267 0.85644418 0.18950004 0.4802011 2.000000
-0.267621 -0.341657 1.085774 0.7053211 0.31932704 0.63289209 2.000000
-0.262670 -0.343793 1.082020 0.66033215 0.39454509 0.63898014 2.000000
-0.257245 -0.346464 1.078267 0.63796004 0.49095103 0.59327403 2.000000
-0.252301 -0.348066 1.073903 0.67039991 0.51707193 0.53216593 2.000000
-0.246305 -0.350370 1.068959 0.63376299 0.61581399 0.46809999 2.000000
-0.241826 -0.351942 1.064595 0.72518598 0.53955998 0.42776199 2.000000
-0.237866 -0.354444 1.059956 0.815478 0.504719 0.283292 2.000000
-0.234906 -0.356702 1.049977 0.87225482 0.45088291 0.18940996 2.000000
-0.229566 -0.357816 1.033742 0.77835473 0.5819858 0.23549192 2.000000
-0.224622 -0.359418 1.023183 0.65395995 0.70273195 0.28018598 2.000000
-0.219190 -0.361448 1.019276 0.35735785 0.86219863 0.35903885 2.000000
-0.212552 -0.363950 1.022603 0.17407698 0.89643389 0.40755795 2.000000
-0.206113 -0.365598 1.024861 0.41914692 0.83084684 0.36607293 2.000000
-0.201215 -0.367597 1.018452 0.79818605 0.55991504 0.22224801 2.000000
-0.197721 -0.369367 1.003163 0.87623388 0.44996094 0.17247998 2.000000
-0.193837 -0.371213 0.990407 0.79848501 0.53802401 0.270096 2.000000
-0.188886 -0.373197 0.984242 0.64296291 0.57393792 0.50714293 2.000000
-0.183469 -0.375196 0.980916 0.46543098 0.74929597 0.47109398 2.000000
-0.177556 -0.377286 0.980702 0.25984507 0.87872424 0.40040511 2.000000
-0.171193 -0.379636 0.984273 0.08921904 0.94067045 0.32738216 2.000000
-0.164731 -0.381544 0.987172 0.26684401 0.93072405 0.25009401 2.000000
-0.159284 -0.382535 0.983754 0.40293116 0.89843535 0.17452907 2.000000
-0.154279 -0.383756 0.974690 0.39428199 0.90122998 0.179795 2.000000
-0.604863 -0.177488 2.513844 0.84346118 0.05560901 0.53430411 1.000000
-0.600286 -0.179441 2.506550 0.88143971 0.03089699 0.47128485 1.000000
-0.591588 -0.183256 2.487141 0.91851283 -0.007128 0.39532693 1.000000
-0.587148 -0.185178 2.477528 0.90620356 0.05612897 0.4190998 1.000000
-0.578176 -0.188932 2.458119 0.90436859 0.03994298 0.42487881 1.000000
-0.569211 -0.192747 2.439961 0.87475951 -0.01357001 0.48436728 1.000000
-0.564542 -0.194684 2.432911 0.80685864 0.01906799 0.59043674 1.000000
-0.559697 -0.196546 2.427083 0.82594717 -0.006319 0.56371211 1.000000
-0.555181 -0.198469 2.418812 0.90928728 -0.07569002 0.40922813 1.000000
-0.551053 -0.200391 2.407002 0.91931302 -0.072158 0.38685501 1.000000
-0.546514 -0.202375 2.396992 0.86156957 -0.05660497 0.50447375 1.000000
-0.541715 -0.204313 2.389393 0.86775619 -0.14121303 0.47650611 1.000000
-0.537259 -0.206205 2.379475 0.92097306 -0.19902701 0.33495802 1.000000
-0.529294 -0.209867 2.353352 0.84039883 -0.10602798 0.53149589 1.000000
-0.524343 -0.211851 2.347859 0.69366477 -0.03182099 0.71959476 1.000000
-0.514318 -0.215833 2.337788 0.83392454 0.02060499 0.5514937 1.000000
-0.509603 -0.217802 2.330250 0.86731032 0.02968001 0.49688218 1.000000
-0.506536 -0.225660 2.325581 0.89860859 0.02798499 0.4378578 1.000000
-0.500753 -0.221586 2.311421 0.94100488 -0.016159 0.33800696 1.000000
-0.497014 -0.223432 2.297657 0.96518943 -0.04608302 0.25746012 1.000000
-0.494878 -0.231168 2.286824 0.96918939 0.00542 0.2462571 1.000000
-0.489759 -0.227033 2.268300 0.94459001 0.067943 0.321144 2.000000
-0.485417 -0.228895 2.258046 0.92933614 0.08483001 0.35935805 2.000000
-0.481336 -0.230771 2.246968 0.98370545 -0.005798 0.17969408 2.000000
-0.475789 -0.234189 2.208272 0.97644605 0.048768 0.21017801 2.000000
-0.467984 -0.237943 2.183644 0.98641245 0.05894003 0.15335107 2.000000
-0.466611 -0.239362 2.154225 0.99856907 -0.042286 0.032737 2.000000
-0.465695 -0.240797 2.122120 0.99217129 -0.08883903 0.08777103 2.000000
-0.462812 -0.242536 2.103779 0.96211405 0.061056 0.26572301 2.000000
-0.454595 -0.246351 2.081593 0.9433682 0.16253803 0.28920206 2.000000
-0.450864 -0.248060 2.067097 0.97989018 0.002142 0.19952604 2.000000
-0.447812 -0.249784 2.048695 0.9868719 0.046802 0.15457498 2.000000
-0.445058 -0.251493 2.029103 0.97221683 0.20457196 0.11377498 2.000000
-0.439717 -0.254850 1.988331 0.97646116 0.18090403 0.11746202 2.000000
-0.433774 -0.258253 1.950612 0.97920512 0.05261901 0.19593002 2.000000
-0.430234 -0.260038 1.935841 0.96606434 0.11697804 0.23029508 2.000000
-0.423139 -0.263639 1.906422 0.9862284 0.001283 0.16538407 2.000000
-0.420285 -0.265363 1.887562 0.98536198 -0.006209 0.170362 2.000000
-0.417058 -0.267194 1.871327 0.96797604 0.17895701 0.17605901 2.000000
-0.413648 -0.269010 1.855977 0.91203018 0.38892808 0.13013803 2.000000
-0.407376 -0.272184 1.817891 0.89916479 0.4183149 0.12851197 2.000000
-0.403989 -0.274030 1.802510 0.93409683 0.30888094 0.17904097 2.000000
-0.400624 -0.275937 1.787953 0.97314834 0.18584606 0.13580705 2.000000
-0.398030 -0.277509 1.765645 0.98312969 0.15963495 0.08928997 2.000000
-0.395612 -0.279050 1.740620 0.98127455 0.16946692 0.09154896 2.000000
-0.393170 -0.280729 1.719777 0.96693279 0.21992895 0.12912097 2.000000
-0.390103 -0.282606 1.705311 0.96120734 0.20587807 0.18356107 2.000000
-0.387014 -0.284360 1.689168 0.98897298 0.067848 0.13164 2.000000
-0.384534 -0.285978 1.666127 0.98829479 -0.06897899 0.13607097 2.000000
-0.381581 -0.287687 1.647359 0.96978272 -0.012976 0.24362493 2.000000
-0.375157 -0.297361 1.627797 0.95879597 0.05788 0.27813699 2.000000
-0.370153 -0.293195 1.607869 0.91871779 0.23201595 0.31957193 2.000000
-0.365636 -0.295164 1.599476 0.82292103 0.40523601 0.39822701 2.000000
-0.360906 -0.297162 1.592152 0.87745436 0.36634915 0.30961613 2.000000
-0.357030 -0.298932 1.578816 0.96532867 0.19532193 0.17317594 2.000000
-0.354161 -0.300580 1.558797 0.98188825 0.09886403 0.16162104 2.000000
-0.350675 -0.302335 1.543416 0.95948284 0.04876599 0.27751495 2.000000
-0.342893 -0.306043 1.518483 0.98130973 0.11448797 0.15467296 2.000000
-0.340283 -0.307752 1.498677 0.94969165 0.30359389 0.07691897 2.000000
-0.338086 -0.309446 1.475148 0.8894381 0.45135005 0.07199301 2.000000
-0.335462 -0.310865 1.452260 0.85950037 0.50157721 0.09838404 2.000000
-0.332105 -0.312360 1.435353 0.83470817 0.5148781 0.19535304 2.000000
-0.327291 -0.314207 1.426930 0.79184064 0.47655778 0.38194383 2.000000
-0.322339 -0.316404 1.421834 0.77218062 0.3947858 0.49787675 2.000000
-0.317594 -0.318571 1.416188 0.86136837 0.37102616 0.34696415 2.000000
-0.313390 -0.320371 1.405018 0.9216066 0.35339285 0.16048293 2.000000
-0.310575 -0.322217 1.386372 0.92355554 0.36842122 0.10635306 2.000000
-0.307546 -0.323942 1.368214 0.87614234 0.45524418 0.15851606 2.000000
-0.303655 -0.325788 1.355458 0.83395339 0.50157563 0.23009483 2.000000
-0.299375 -0.327680 1.345143 0.85786982 0.42983291 0.28160794 2.000000
-0.295056 -0.329557 1.334981 0.89162485 0.31479195 0.32543995 2.000000
-0.290670 -0.331449 1.325307 0.88137911 0.35889005 0.30719504 2.000000
-0.286244 -0.333387 1.315907 0.83953495 0.50022897 0.21201899 2.000000
-0.287412 -0.327070 1.295460 0.83670017 0.54260611 0.07423902 2.000000
-0.282445 -0.335203 1.302571 0.8357588 0.53767187 0.11142797 2.000000
-0.285878 -0.328626 1.268056 0.84657182 0.53199789 0.017158 2.000000
-0.277028 -0.343885 1.114308 0.91428835 0.36777114 0.16976807 2.000000
-0.273671 -0.345670 1.098256 0.82612961 0.49335277 0.27223687 2.000000
-0.268727 -0.347440 1.090840 0.63755281 0.68136179 0.35954489 2.000000
-0.263715 -0.349821 1.087544 0.46790822 0.80561937 0.36337217 2.000000
-0.258023 -0.351835 1.085988 0.50741907 0.80517511 0.30695104 2.000000
-0.251393 -0.355176 1.082631 0.54528006 0.77754809 0.31319104 2.000000
-0.246968 -0.356061 1.078602 0.54781497 0.77869596 0.30582898 2.000000
-0.242131 -0.358060 1.074208 0.65125 0.68938101 0.317218 2.000000
-0.237142 -0.360578 1.070027 0.73906368 0.61012774 0.28553288 2.000000
-0.233457 -0.362913 1.064900 0.85372304 0.48195002 0.19718301 2.000000
-0.230672 -0.365903 1.056813 0.80557118 0.54607913 0.22989705 2.000000
-0.224782 -0.368604 1.046956 0.71139023 0.64051321 0.28925209 2.000000
-0.219075 -0.370756 1.039693 0.47292399 0.78903498 0.39213099 2.000000
-0.212819 -0.372037 1.036610 0.33519184 0.74627264 0.57508572 2.000000
-0.207166 -0.372510 1.033894 0.57268278 0.51187881 0.64032376 2.000000
-0.201940 -0.373716 1.029164 0.78551631 0.41289316 0.46095918 2.000000
-0.197377 -0.375562 1.018757 0.89102514 0.39015206 0.23206804 2.000000
-0.193418 -0.377332 1.005086 0.77373403 0.57678702 0.26201601 2.000000
-0.188878 -0.379194 0.996907 0.54149976 0.79117965 0.28427587 2.000000
-0.183225 -0.381284 0.994771 0.35435905 0.87944413 0.31781705 2.000000
-0.177411 -0.383680 0.997365 0.12905797 0.92224882 0.36441893 2.000000
-0.170247 -0.385770 1.002186 -0.04814201 0.92769817 0.37021407 2.000000
-0.165074 -0.385938 1.004628 -0.054146 0.96614499 0.252254 2.000000
-0.611142 -0.181409 2.523640 0.82838171 0.06880098 0.55592281 1.000000
-0.601781 -0.185377 2.510182 0.86927535 0.04742302 0.4920482 1.000000
-0.597364 -0.187284 2.500966 0.91829542 -0.03710502 0.39415318 1.000000
-0.593114 -0.189146 2.490132 0.91300686 -0.05577099 0.40411394 1.000000
-0.588651 -0.191038 2.480763 0.88916819 -0.009822 0.4574751 1.000000
-0.570737 -0.198682 2.443623 0.90285814 0.08727101 0.42098806 1.000000
-0.566213 -0.200620 2.435658 0.84611972 0.03918099 0.53155082 1.000000
-0.561559 -0.202543 2.429036 0.84643928 -0.07427802 0.52727917 1.000000
-0.557057 -0.204481 2.420796 0.88988605 -0.15190901 0.43014703 1.000000
-0.552777 -0.206418 2.409718 0.91211341 -0.12951706 0.38894017 1.000000
-0.548184 -0.208311 2.399464 0.87919691 -0.048331 0.47400095 1.000000
-0.543462 -0.210218 2.391102 0.88993995 -0.03263 0.45490897 1.000000
-0.539029 -0.212095 2.381154 0.9243519 -0.10665799 0.36632996 1.000000
-0.535054 -0.213895 2.367878 0.94999897 -0.036282 0.31013799 1.000000
-0.530934 -0.215742 2.355855 0.90649445 0.04181302 0.42014221 1.000000
-0.526097 -0.217725 2.349568 0.72853292 0.07183399 0.68123393 1.000000
-0.521016 -0.219739 2.345143 0.71104699 0.028762 0.70255599 1.000000
-0.516057 -0.221769 2.339802 0.75458093 -0.000266 0.65620694 1.000000
-0.503774 -0.233488 2.318745 0.94366631 -0.02148901 0.33020011 1.000000
-0.491033 -0.232984 2.273518 0.94550344 0.09159704 0.31246315 2.000000
-0.482526 -0.236753 2.252858 0.94664186 0.12454098 0.29725196 2.000000
-0.479459 -0.238492 2.235432 0.9860669 0.09491699 0.13661199 2.000000
-0.476789 -0.240201 2.215016 0.98309888 0.08557899 0.16184198 2.000000
-0.473096 -0.242048 2.201161 0.95333709 0.11771401 0.27801403 2.000000
-0.469068 -0.243940 2.189930 0.98092824 0.08188702 0.17627904 2.000000
-0.466825 -0.245481 2.166462 0.99823046 0.04661002 0.03692502 2.000000
-0.466474 -0.246824 2.129933 0.99884538 0.02417101 0.04151702 2.000000
-0.464070 -0.248456 2.107960 0.98167696 0.010648 0.19025499 2.000000
-0.460042 -0.250394 2.097249 0.93354749 0.05058297 0.35486681 2.000000
-0.455739 -0.252302 2.087147 0.95478115 0.009008 0.29717305 2.000000
-0.452161 -0.254011 2.071461 0.97324513 -0.10992901 0.20176603 2.000000
-0.449056 -0.255750 2.053608 0.97532291 -0.09698899 0.19833898 2.000000
-0.445615 -0.257566 2.038807 0.96953422 0.05491501 0.23872105 2.000000
-0.442250 -0.259321 2.023304 0.97533509 0.18142402 0.12572501 2.000000
-0.439862 -0.260984 2.001118 0.9905217 0.10736897 0.08566597 2.000000
-0.437635 -0.262571 1.977223 0.98944897 0.077856 0.122185 2.000000
-0.434667 -0.264265 1.958302 0.98044639 0.09330504 0.17326007 2.000000
-0.431134 -0.266050 1.943440 0.96227464 0.15323894 0.22482292 2.000000
-0.427480 -0.267881 1.929433 0.970859 0.109579 0.213132 2.000000
-0.421605 -0.271299 1.892048 0.98113312 -0.06660801 0.18149702 2.000000
-0.418248 -0.273099 1.876240 0.96689136 -0.01457001 0.25477209 2.000000
-0.414151 -0.274991 1.865498 0.94259669 0.14764795 0.2995189 2.000000
-0.410215 -0.276914 1.853444 0.93567582 0.30645294 0.17492097 2.000000
-0.406911 -0.278593 1.836110 0.94445398 0.30003799 0.134104 2.000000
-0.403966 -0.280225 1.816334 0.94584076 0.29666892 0.13180597 2.000000
-0.400930 -0.281980 1.798421 0.96480378 0.22797995 0.13106797 2.000000
-0.398275 -0.283582 1.776845 0.98181706 0.16219001 0.09863901 2.000000
-0.396497 -0.297498 1.779194 0.98561516 0.13633102 0.09988302 2.000000
-0.393483 -0.286848 1.731801 0.96911291 0.21171198 0.12648399 2.000000
-0.387616 -0.290449 1.698598 0.98106941 0.15085206 0.12143505 2.000000
-0.385564 -0.292020 1.673512 0.99415143 0.05244102 0.09440804 2.000000
-0.382947 -0.293668 1.652363 0.98537672 0.02962399 0.16779495 2.000000
-0.371244 -0.299177 1.614857 0.92572454 0.12522894 0.35686382 2.000000
-0.366635 -0.301221 1.607045 0.81803689 0.30458696 0.48789593 2.000000
-0.361676 -0.303235 1.601308 0.83693937 0.37762717 0.39614418 2.000000
-0.357434 -0.305082 1.590382 0.9478811 0.25599203 0.18970902 2.000000
-0.354589 -0.306669 1.569508 0.97564019 0.18354104 0.12016202 2.000000
-0.351674 -0.308332 1.550099 0.97418141 0.13761206 0.17897907 2.000000
-0.347943 -0.310163 1.536366 0.95851973 0.03443099 0.28293892 2.000000
-0.344113 -0.312009 1.523549 0.96215658 0.01416299 0.27212888 2.000000
-0.340459 -0.313840 1.510060 0.95693888 0.19265298 0.21714697 2.000000
-0.336827 -0.315809 1.496510 0.8990682 0.41263009 0.14633103 2.000000
-0.333554 -0.317594 1.479725 0.84364118 0.52758111 0.09963802 2.000000
-0.330594 -0.318983 1.459126 0.80660273 0.58301981 0.09736497 2.000000
-0.327268 -0.320463 1.440938 0.78396507 0.60448605 0.14140501 2.000000
-0.322995 -0.322294 1.429402 0.79964713 0.55276009 0.23456504 2.000000
-0.318502 -0.324399 1.422383 0.84912317 0.39832308 0.34688407 2.000000
-0.314099 -0.326551 1.414357 0.93022509 0.22898702 0.28678603 2.000000
-0.310666 -0.328367 1.399678 0.96669064 0.18540493 0.17644893 2.000000
-0.307637 -0.330198 1.382161 0.93731931 0.3057521 0.16717705 2.000000
-0.303640 -0.331953 1.369008 0.84761272 0.48130084 0.22338793 2.000000
-0.299527 -0.333784 1.357350 0.85902335 0.46941819 0.20426808 2.000000
-0.295720 -0.335584 1.343953 0.90200604 0.37181402 0.21940701 2.000000
-0.291699 -0.337446 1.332051 0.88915215 0.32614806 0.32099205 2.000000
-0.287046 -0.339384 1.324025 0.83249095 0.37869698 0.40440997 2.000000
-0.282262 -0.341337 1.316853 0.84499442 0.4393327 0.30491179 2.000000
-0.277982 -0.343213 1.306477 0.85679017 0.4776191 0.19439804 2.000000
-0.279279 -0.336927 1.285267 0.83091403 0.55279902 0.063207 2.000000
-0.274175 -0.345075 1.293233 0.80096403 0.58644403 0.12058201 2.000000
-0.278234 -0.338407 1.254841 0.7348073 0.67710028 0.03991802 2.000000
-0.269918 -0.346937 1.282735 0.68545772 0.70292772 0.18984292 2.000000
-0.267758 -0.353910 1.111195 0.48730597 0.86027395 0.14987199 2.000000
-0.262540 -0.355924 1.106770 0.40669694 0.90030187 0.15509398 2.000000
