0.452415 0.356243 0.226921 0.83770105 0.14866901 0.52550403 1.000000
0.457725 0.360699 0.217064 0.85092916 0.19278504 0.48862409 1.000000
0.464301 0.365902 0.202049 0.85107797 0.30772999 0.42540398 1.000000
0.472510 0.371014 0.180290 0.86886985 0.31233995 0.38406893 1.000000
0.485984 0.369762 0.150566 0.88867062 0.13046094 0.43959581 1.000000
0.484778 0.378399 0.152336 0.86860567 -0.009078 0.49542081 1.000000
0.490317 0.383037 0.143028 0.85248549 -0.04227497 0.52103869 1.000000
0.495490 0.387989 0.135307 0.83127473 -0.07068798 0.55134882 1.000000
0.500236 0.392788 0.129142 0.80331696 -0.054006 0.59309797 1.000000
0.505393 0.397114 0.122551 0.82325765 0.04260598 0.56606676 1.000000
0.281562 0.237057 0.045158 -0.64039318 -0.75272921 0.15262804 2.000000
0.519370 0.398083 0.098991 0.85632119 0.25737506 0.4477411 1.000000
0.528083 0.412434 0.072868 0.81372087 0.27662195 0.51121292 1.000000
0.533576 0.416935 0.064140 0.76968713 0.12988102 0.62507011 1.000000
0.539466 0.420948 0.056663 0.80307891 0.11060299 0.58551793 1.000000
0.546119 0.426006 0.045372 0.83610278 0.17776195 0.51897286 1.000000
0.567527 0.438984 0.001793 0.84246392 0.26844697 0.46710895 1.000000
0.574988 0.443508 -0.014321 0.85365876 0.16528095 0.49391186 1.000000
0.580100 0.448589 -0.022713 0.81322416 0.05370601 0.57946711 1.000000
0.583945 0.453052 -0.027565 0.81813277 0.08000998 0.56943584 1.000000
0.589133 0.457630 -0.036873 0.86792099 0.169264 0.466972 1.000000
0.276938 0.232334 -0.006111 -0.58474028 -0.78976537 0.18533609 2.000000
0.279334 0.219135 -0.043709 -0.58532592 -0.77122989 0.25019597 2.000000
0.277717 0.214619 -0.059456 -0.61233808 -0.7359981 0.28870204 2.000000
0.275977 0.210110 -0.074684 -0.73361546 -0.65973041 0.1629851 2.000000
0.276572 0.205654 -0.103768 -0.82868011 -0.55777007 0.04671001 2.000000
0.277991 0.201237 -0.137795 -0.82180101 -0.564665 0.076135 2.000000
0.277198 0.196751 -0.158608 -0.64819492 -0.72821191 0.22259997 3.000000
0.275748 0.192234 -0.175392 -0.43729414 -0.85072928 0.29160509 3.000000
0.274116 0.187725 -0.191170 -0.54116426 -0.79168238 0.28351413 3.000000
0.272529 0.183216 -0.207192 -0.69483398 -0.69146998 0.19767399 3.000000
0.271232 0.174251 -0.250618 -0.74221385 -0.64464287 0.18317796 3.000000
0.269858 0.169742 -0.267891 -0.78103825 -0.58162219 0.22736507 3.000000
0.268287 0.165226 -0.283974 -0.82026362 -0.51272176 0.25354288 3.000000
0.266517 0.160709 -0.298958 -0.76682227 -0.60321822 0.21934308 3.000000
0.265769 0.156223 -0.319954 -0.68385784 -0.71812384 0.12898297 3.000000
0.266547 0.151783 -0.350228 -0.63711384 -0.7624048 0.11324697 3.000000
0.266807 0.147327 -0.377297 -0.80653885 -0.58452189 0.08848298 3.000000
0.275977 0.138676 -0.483315 -0.97362664 -0.22554592 0.03435399 3.000000
0.276084 0.134212 -0.509590 -0.92006468 -0.39089586 0.02610399 3.000000
-0.617944 -0.498516 1.962974 0.84910611 -0.28958404 0.44176906 1.000000
-0.612573 -0.493900 1.956413 0.82937057 -0.26284186 0.49300975 1.000000
-0.607186 -0.489269 1.949577 0.8474213 -0.16369606 0.50505518 1.000000
-0.601403 -0.484631 1.940544 0.86339196 -0.10182899 0.49415097 1.000000
-0.595712 -0.480000 1.931907 0.83626689 -0.13501198 0.53144093 1.000000
-0.590524 -0.475376 1.926414 0.76615127 -0.23167408 0.59944921 1.000000
-0.585702 -0.470760 1.922966 0.7368089 -0.28561196 0.61281192 1.000000
-0.580789 -0.466145 1.918998 0.79529893 -0.22373298 0.56342095 1.000000
-0.575326 -0.461521 1.911949 0.8445113 -0.14330105 0.51600918 1.000000
-0.569619 -0.456890 1.903282 0.84769799 -0.164577 0.504304 1.000000
-0.564202 -0.452252 1.896263 0.83334362 -0.2219179 0.50625177 1.000000
-0.558953 -0.447636 1.890434 0.81603311 -0.26695603 0.51266407 1.000000
-0.548425 -0.438389 1.878349 0.82719139 -0.25987112 0.49821823 1.000000
0.277747 0.129803 -0.545113 -0.90411341 -0.42707819 -0.01353401 3.000000
-0.543130 -0.433766 1.872123 0.81262496 -0.28963598 0.50571897 1.000000
-0.537957 -0.429150 1.866752 0.79107586 -0.35334494 0.49934591 1.000000
-0.532983 -0.424526 1.862480 0.80639702 -0.37522701 0.45708701 1.000000
-0.527688 -0.419903 1.856224 0.86502815 -0.25104704 0.43439807 1.000000
-0.521508 -0.415257 1.844688 0.89929048 -0.14080408 0.41406622 1.000000
-0.515145 -0.410603 1.832145 0.88095201 -0.220626 0.418626 1.000000
-0.509576 -0.405964 1.824363 0.83480377 -0.3474109 0.42709288 1.000000
-0.504312 -0.401341 1.818260 0.84371777 -0.34391891 0.41214089 1.000000
-0.498589 -0.396710 1.809562 0.88429275 -0.23053893 0.40605188 1.000000
-0.492318 -0.392063 1.797539 0.89741277 -0.13355797 0.42049089 1.000000
-0.486199 -0.387409 1.786400 0.85925394 -0.13865399 0.49239997 1.000000
-0.480889 -0.382786 1.780143 0.76567083 -0.24338295 0.59540987 1.000000
-0.476098 -0.378178 1.777000 0.72876999 -0.325878 0.60224399 1.000000
-0.471261 -0.373562 1.773460 0.79363705 -0.24181102 0.55827204 1.000000
-0.465920 -0.368939 1.766960 0.84717794 -0.18040099 0.49974496 1.000000
-0.460259 -0.364300 1.758659 0.84259687 -0.21827897 0.49232592 1.000000
-0.449410 -0.355045 1.744652 0.84317195 -0.21458699 0.49296397 1.000000
0.282493 0.125477 -0.599068 -0.92060841 -0.38748317 -0.04834202 3.000000
0.294379 0.112446 -0.746865 -0.94991879 -0.29301194 0.10861998 3.000000
-0.426873 -0.336514 1.711754 0.87926473 -0.12618796 0.45931486 1.000000
-0.420648 -0.331860 1.699974 0.90193674 -0.05593998 0.42822988 1.000000
-0.414086 -0.327198 1.686180 0.89455948 -0.05954103 0.44296524 1.000000
0.292884 0.107944 -0.763558 -0.96920284 -0.20408497 0.13782298 3.000000
-0.408120 -0.322552 1.675926 0.85092522 -0.16760204 0.49783113 1.000000
-0.402978 -0.317928 1.670738 0.77343419 -0.32624608 0.54347313 1.000000
-0.398156 -0.313328 1.667442 0.76062281 -0.34919891 0.54727786 1.000000
-0.393182 -0.308704 1.663078 0.80279634 -0.21527909 0.55603323 1.000000
-0.387795 -0.304081 1.656273 0.81704313 -0.06002001 0.57344409 1.000000
-0.382241 -0.299450 1.648613 0.81277417 -0.08792202 0.57590612 1.000000
-0.376870 -0.294827 1.641960 0.80226005 -0.09794501 0.58888504 1.000000
-0.371407 -0.290196 1.634758 0.8382543 -0.03920601 0.5438682 1.000000
-0.365518 -0.285549 1.624962 0.86957628 0.06550802 0.48943416 1.000000
-0.347024 -0.271603 1.590751 0.85899825 -0.009985 0.51188115 1.000000
-0.340646 -0.275753 1.580436 0.8287283 -0.009219 0.5595752 1.000000
-0.335778 -0.262341 1.574516 0.78597619 -0.04399901 0.61668915 1.000000
-0.330621 -0.257717 1.569114 0.74845733 -0.10962105 0.65406029 1.000000
-0.325540 -0.253094 1.564171 0.76164319 -0.14693804 0.63111716 1.000000
-0.320321 -0.248478 1.558494 0.81009342 -0.14406207 0.56832629 1.000000
-0.314797 -0.243847 1.550956 0.85815386 -0.12550798 0.49781492 1.000000
-0.308907 -0.239201 1.541130 0.87303424 -0.05940502 0.48402713 1.000000
-0.302880 -0.234562 1.530601 0.86317311 -0.035222 0.50367806 1.000000
0.291556 0.103428 -0.781105 -0.96629358 -0.2384899 0.09694996 3.000000
-0.297112 -0.229923 1.521507 0.83120987 -0.016295 0.55571991 1.000000
-0.291543 -0.225285 1.513664 0.80991507 -0.009874 0.58646405 1.000000
-0.280511 -0.216030 1.498680 0.83422215 -0.04811801 0.5493251 1.000000
-0.274651 -0.211384 1.489036 0.87869487 -0.033258 0.47622393 1.000000
-0.268380 -0.206738 1.477073 0.89164511 0.011768 0.45258205 1.000000
-0.255441 -0.197422 1.450615 0.88803992 0.00956 0.45966696 1.000000
0.291038 0.098957 -0.803536 -0.96037405 -0.27046501 0.067308 3.000000
-0.249474 -0.192768 1.440330 0.8601884 -0.07480503 0.50446023 1.000000
-0.243829 -0.188137 1.431999 0.82965087 -0.14640498 0.53874392 1.000000
-0.238549 -0.183514 1.425926 0.76528005 -0.23303302 0.60003504 1.000000
-0.233682 -0.178898 1.422294 0.72684699 -0.33477599 0.59968199 1.000000
0.292701 -0.029095 -0.966561 -0.88261219 0.4693861 -0.02593101 3.000000
0.294883 -0.024563 -0.954109 -0.8691328 0.49381789 -0.02742399 3.000000
0.298804 0.011143 -0.826638 -0.99971625 0.02378101 -0.001373 3.000000
0.300574 0.006733 -0.862831 -0.99881849 -0.002635 -0.04852502 3.000000
0.298682 0.002338 -0.823647 -0.99225012 0.12315402 -0.016516 3.000000
0.299537 0.006824 -0.803109 -0.98759778 0.15544297 0.022093 3.000000
0.301719 0.011356 -0.790749 -0.9481361 0.30724703 0.08146901 3.000000
0.302207 0.024761 -0.716988 -0.97106577 0.23707494 -0.02875299 3.000000
0.302344 0.029232 -0.692299 -0.99267102 0.114858 -0.037575 3.000000
0.300513 0.033642 -0.655800 -0.99594804 0.081687 -0.037613 3.000000
0.299842 0.042553 -0.600716 -0.99356315 0.10376602 -0.04544101 3.000000
0.298911 0.046986 -0.569527 -0.9919792 0.12611902 -0.008442 3.000000
0.300239 0.051487 -0.551888 -0.97065968 0.23505792 0.05067098 3.000000
0.302253 0.056011 -0.538430 -0.99909381 0.04053899 0.012967 3.000000
0.301093 0.060444 -0.505959 -0.99081773 -0.12952497 -0.03877499 3.000000
0.298377 0.064823 -0.464150 -0.99020158 -0.13679494 -0.02807099 3.000000
0.298102 0.069157 -0.490395 -0.96327228 -0.26833908 -0.010033 3.000000
0.298743 0.069302 -0.440773 -0.98847277 -0.14878497 0.02801099 3.000000
0.298972 0.073765 -0.416512 -0.89897238 -0.43789118 0.009999 3.000000
0.295249 0.078121 -0.368691 -0.98425243 -0.17489208 -0.02568901 3.000000
0.292655 0.086979 -0.302132 -0.97284018 -0.14431603 0.18098303 3.000000
0.295325 0.091518 -0.292610 -0.91282063 -0.19518692 0.35869285 3.000000
0.298011 0.096065 -0.283089 -0.91883115 -0.18529803 0.34844506 3.000000
0.300574 0.100597 -0.272927 -0.8849636 -0.28775387 0.36611083 3.000000
0.305793 0.109684 -0.253060 -0.90120278 -0.25384794 0.35127592 3.000000
0.308219 0.114231 -0.242104 -0.91822833 -0.2798821 0.2802191 3.000000
0.310325 0.118755 -0.229195 -0.91335875 -0.32943891 0.23926093 3.000000
0.312110 0.123272 -0.214363 -0.87200826 -0.44387913 0.20633206 3.000000
0.313560 0.127781 -0.197487 -0.81883007 -0.53960704 0.19581002 3.000000
0.314689 0.132282 -0.178749 -0.81215511 -0.55866608 0.16821502 3.000000
0.315467 0.136768 -0.157875 -0.84101075 -0.52297185 0.13856896 3.000000
0.316291 0.141254 -0.137184 -0.85647492 -0.49360795 0.15100299 2.000000
0.317329 0.145748 -0.117928 -0.86966555 -0.46270376 0.17200891 2.000000
0.318732 0.150257 -0.100777 -0.90263211 -0.38013705 0.20186902 2.000000
0.325553 0.155048 -0.062599 -0.913462 -0.349077 0.209123 2.000000
0.327079 0.159557 -0.046212 -0.87991555 -0.44355277 0.17032191 2.000000
0.324470 0.168285 -0.032936 -0.8746711 -0.46626405 0.13247001 2.000000
0.325370 0.172779 -0.012856 -0.92962211 -0.34691104 0.12432001 2.000000
0.326285 0.177273 0.007255 -0.94700732 -0.2989091 0.11760304 2.000000
0.327384 0.181766 0.026207 -0.92445896 -0.35137098 0.14803399 2.000000
0.328757 0.186268 0.043510 -0.80843391 -0.55566194 0.19409898 2.000000
0.329459 0.190761 0.064872 -0.73552798 -0.66346598 0.137155 2.000000
0.329413 0.195225 0.090629 -0.76143834 -0.63655129 0.12253206 2.000000
0.304572 0.081509 -0.986885 -0.95529404 -0.18956801 0.22688601 3.000000
0.302054 0.076969 -0.997322 -0.92861905 -0.23017601 0.29100802 3.000000
0.304404 0.072689 -0.983437 -0.98622856 -0.08879696 0.13952894 3.000000
0.332419 0.208706 0.149223 -0.86738227 -0.47266614 0.15567505 2.000000
0.333304 0.213192 0.169487 -0.8656247 -0.48638583 0.11883896 2.000000
0.333579 0.217678 0.193382 -0.82556342 -0.55282328 0.11327606 2.000000
0.315024 0.230503 0.381218 -0.30280396 -0.51714993 0.80054089 2.000000
0.318641 0.235073 0.385185 -0.19677505 -0.52549714 0.82772721 2.000000
0.322303 0.239651 0.388756 -0.123174 -0.59914101 0.79111201 2.000000
0.325751 0.244221 0.393608 -0.14768296 -0.79209276 0.59226582 2.000000
0.299933 0.072437 -1.010079 -0.82339292 -0.55721995 0.10737799 3.000000
0.300910 0.067997 -1.041451 -0.85578312 -0.51593607 0.03801601 3.000000
0.330970 0.253307 0.413414 0.04448701 -0.86926128 0.49234716 2.000000
0.334479 0.257870 0.417991 0.38162692 -0.64179486 0.66517686 2.000000
0.338737 0.262463 0.417961 0.5167708 -0.41109784 0.75096371 2.000000
0.342979 0.267063 0.418083 0.44651602 -0.39320802 0.80374803 2.000000
0.347083 0.271641 0.419029 0.36810199 -0.38008399 0.84854999 2.000000
0.351371 0.276241 0.418846 0.63845017 -0.23727806 0.73217519 2.000000
0.356483 0.280857 0.413688 0.85663493 0.08841899 0.50828996 2.000000
0.371726 0.290249 0.381187 0.83720398 0.218191 0.50147999 2.000000
0.378638 0.295071 0.370170 0.75895998 0.09762 0.64377798 1.000000
0.383689 0.299885 0.365287 0.74455067 -0.08187796 0.6625257 1.000000
0.388404 0.304249 0.360832 0.83988192 0.005727 0.54273895 1.000000
0.396125 0.308727 0.346397 0.88651496 0.17607699 0.42788798 1.000000
0.405402 0.313885 0.322014 0.87562147 0.22437312 0.42771923 1.000000
0.411902 0.318264 0.308616 0.85883994 0.07537599 0.50666796 1.000000
0.416862 0.322575 0.300926 0.82959724 -0.03716301 0.55712416 1.000000
0.427711 0.331448 0.285972 0.8560337 -0.01501799 0.51670182 1.000000
0.435081 0.336613 0.271232 0.88838007 0.16628001 0.42793903 1.000000
0.444633 0.342525 0.246086 0.8694469 0.25919197 0.42057295 1.000000
0.453635 0.347233 0.227165 0.86331799 0.16486 0.47697299 1.000000
0.458945 0.351490 0.217064 0.85822483 0.08667998 0.5059019 1.000000
0.471473 0.362430 0.190635 0.86537501 0.287899 0.41017101 1.000000
0.479652 0.366291 0.166313 0.89084887 0.27676896 0.36025995 1.000000
0.302390 0.063587 -1.076058 -0.96080804 -0.27237801 0.051557 3.000000
0.491630 0.374050 0.140709 0.83971612 0.010293 0.54292808 1.000000
0.497214 0.378788 0.132499 0.80446038 0.008085 0.59395128 1.000000
0.502418 0.383846 0.125999 0.76974112 0.007501 0.6383121 1.000000
0.507011 0.388935 0.120537 0.77917896 0.026597 0.62623697 1.000000
0.512595 0.393368 0.112907 0.83106279 0.13840697 0.53868186 1.000000
0.527244 0.403072 0.080620 0.8414751 0.26748903 0.46943506 1.000000
0.533988 0.408276 0.066856 0.80170802 0.23975801 0.54752201 1.000000
0.540381 0.412342 0.057029 0.78096395 0.16176499 0.60326396 1.000000
0.546393 0.407665 0.049766 0.8220587 0.14775995 0.5498968 1.000000
0.300834 0.059070 -1.092171 -0.9563272 -0.26316805 0.12720403 3.000000
0.564551 0.430401 0.013115 0.83824478 0.25227793 0.48342687 1.000000
0.572517 0.435215 -0.005043 0.85640406 0.23420402 0.46013103 1.000000
0.579978 0.439846 -0.020760 0.84412288 0.15163198 0.51426093 1.000000
0.584540 0.444523 -0.028023 0.82896122 0.02383101 0.55879815 1.000000
0.588508 0.448971 -0.033730 0.86598464 0.05640098 0.49687979 1.000000
0.595267 0.453724 -0.047982 0.89347105 0.17066501 0.41543102 1.000000
0.299995 0.054577 -1.112709 -0.95320556 -0.30210586 0.01145499 3.000000
0.304236 0.050243 -1.163643 -0.95477699 -0.293818 -0.045518 3.000000
0.306632 0.045856 -1.203560 -0.99438632 -0.10562903 -0.006193 3.000000
0.305335 0.041347 -1.221352 -0.97075506 0.23744601 0.035412 3.000000
0.303611 0.036838 -1.236641 -0.95784615 0.28715704 0.008461 3.000000
0.302726 0.032337 -1.256752 -0.97955519 0.20103104 -0.007626 3.000000
0.301887 0.027859 -1.277321 -0.98760342 0.15498907 0.02485701 3.000000
0.300147 0.023334 -1.292427 -0.97629155 0.1729211 0.13020407 3.000000
0.297172 0.018780 -1.300148 -0.94380902 0.26165501 0.201894 3.000000
0.294227 0.014233 -1.308083 -0.98974302 0.142318 0.012423 3.000000
0.293906 0.009754 -1.331673 -0.99620006 0.073859 -0.046155 3.000000
0.297202 0.005398 -1.376992 -0.99722895 -0.046393 -0.058156 3.000000
0.298987 0.000980 -1.413155 -0.97851664 0.20312092 -0.03531399 3.000000
0.297187 -0.003536 -1.427956 -0.95580785 0.29314795 0.022263 3.000000
0.294776 -0.008076 -1.439003 -0.96437704 0.24859801 0.090421 3.000000
-0.623727 -0.503155 1.972130 0.87032077 -0.26204393 0.41698289 1.000000
-0.615914 -0.507267 1.953239 0.79528866 -0.35544185 0.49109779 1.000000
-0.610970 -0.502651 1.949058 0.76018393 -0.34542897 0.55027195 1.000000
-0.606118 -0.498043 1.945549 0.78487121 -0.22743906 0.57641015 1.000000
-0.600762 -0.493412 1.938957 0.84654566 -0.08445497 0.52557379 1.000000
-0.594888 -0.488781 1.929405 0.8570039 -0.08492399 0.50826394 1.000000
-0.589364 -0.484142 1.921745 0.81720375 -0.19931794 0.54078683 1.000000
-0.584268 -0.479527 1.916740 0.77990694 -0.30586398 0.54606996 1.000000
-0.579278 -0.474911 1.912437 0.79406833 -0.30422012 0.52621822 1.000000
-0.574059 -0.470287 1.906700 0.84285103 -0.21349001 0.49398802 1.000000
0.292594 -0.012600 -1.451515 -0.98021424 0.16327204 0.11190303 3.000000
-0.544961 -0.455891 1.862266 0.835716 -0.224536 0.501161 1.000000
-0.546578 -0.447140 1.869652 0.84550608 -0.25276902 0.47034805 1.000000
-0.303063 -0.133251 1.531425 0.84972963 -0.06259397 0.52348977 1.000000
-0.535623 -0.437885 1.855156 0.83363765 -0.30284687 0.46187881 1.000000
-0.530312 -0.433254 1.848778 0.81010452 -0.35849523 0.4639093 1.000000
-0.525170 -0.428639 1.843498 0.81508379 -0.34253191 0.46723688 1.000000
-0.519799 -0.424008 1.836815 0.85470408 -0.20736002 0.47590205 1.000000
-0.513757 -0.419361 1.826225 0.88854402 -0.077174 0.45225401 1.000000
-0.507592 -0.414715 1.814811 0.86715364 -0.15794393 0.4723328 1.000000
-0.502053 -0.410084 1.807121 0.84141895 -0.23328999 0.48743197 1.000000
-0.496682 -0.405453 1.800468 0.84749053 -0.26603317 0.45933229 1.000000
-0.491036 -0.400814 1.792106 0.86745498 -0.15447 0.47292799 1.000000
-0.485269 -0.396183 1.783134 0.84417374 -0.11172497 0.52429784 1.000000
-0.479928 -0.391552 1.776695 0.75922796 -0.14760799 0.63386496 1.000000
-0.469979 -0.382328 1.768120 0.76540817 -0.19127304 0.61446314 1.000000
-0.464623 -0.377705 1.761558 0.85559588 -0.14637498 0.49651793 1.000000
-0.453210 -0.368427 1.744224 0.84026186 -0.20462097 0.50208592 1.000000
-0.442559 -0.359181 1.731437 0.83402898 -0.19258799 0.51701599 1.000000
-0.323556 -0.147266 1.577659 0.89295807 0.12880801 0.43131703 1.000000
-0.436990 -0.354542 1.723625 0.85621719 -0.17439904 0.48628911 1.000000
-0.418557 -0.349407 1.692222 0.85880246 -0.17066509 0.48304426 1.000000
-0.419732 -0.340641 1.696953 0.88980178 -0.05969599 0.45242589 1.000000
-0.407021 -0.331326 1.671776 0.88715837 -0.03353201 0.46024519 1.000000
-0.401315 -0.326687 1.663048 0.82683916 -0.21674404 0.5189981 1.000000
-0.386346 -0.312847 1.650108 0.80556178 -0.29394092 0.51445986 1.000000
-0.375695 -0.303593 1.637260 0.82004487 -0.22209496 0.52744691 1.000000
-0.335778 -0.156559 1.599846 0.88054918 0.03480501 0.4726751 1.000000
-0.370477 -0.298969 1.631523 0.80883071 -0.17523194 0.5613258 1.000000
-0.342202 -0.161213 1.612694 0.88033491 0.03846 0.47279095 1.000000
-0.359216 -0.289707 1.615104 0.8586131 0.08226001 0.50598106 1.000000
-0.346337 -0.289196 1.591362 0.86882094 0.10462999 0.48394497 1.000000
-0.346490 -0.280392 1.589958 0.86435644 0.06176896 0.49907168 1.000000
-0.335137 -0.271122 1.572929 0.79895504 -0.044649 0.59973103 1.000000
-0.329843 -0.266491 1.566734 0.78651518 -0.09236902 0.61062414 1.000000
-0.324593 -0.261875 1.560905 0.80294003 -0.13471001 0.58063802 1.000000
-0.319222 -0.257244 1.554191 0.83491999 -0.153587 0.52850699 1.000000
-0.302041 -0.243336 1.527946 0.85419997 -0.15672099 0.49576298 1.000000
-0.296502 -0.238705 1.520225 0.82602411 -0.06654201 0.55969307 1.000000
-0.291131 -0.234081 1.513511 0.80937487 -0.05466299 0.58474291 1.000000
-0.285638 -0.229450 1.506126 0.82709918 -0.02904301 0.56130512 1.000000
-0.279931 -0.224819 1.497581 0.86442441 -0.06461603 0.49859323 1.000000
-0.274026 -0.220173 1.487633 0.87953567 -0.05981198 0.47205882 1.000000
-0.267846 -0.215527 1.476158 0.89040601 -0.0527 0.45210601 1.000000
-0.261559 -0.210873 1.464073 0.89166888 0.012845 0.45250594 1.000000
-0.255166 -0.206204 1.451256 0.88365275 0.011892 0.46799187 1.000000
-0.348306 -0.165867 1.623771 0.85499505 -0.013668 0.51845603 1.000000
-0.248971 -0.201565 1.439628 0.85993508 0.012512 0.51025005 1.000000
-0.243173 -0.196926 1.430473 0.82302395 -0.012642 0.56786597 1.000000
-0.237710 -0.192295 1.423210 0.77249337 -0.04920902 0.63311331 1.000000
-0.232583 -0.187672 1.418022 0.69918597 -0.11318899 0.70592297 1.000000
-0.227792 -0.183064 1.414848 0.63760714 -0.22754905 0.73598816 1.000000
-0.223245 -0.178463 1.413200 0.54769806 -0.21819402 0.80772409 1.000000
0.290443 -0.029041 -0.899544 -0.89567634 0.44345817 -0.03329801 3.000000
0.289298 -0.033535 -0.918312 -0.91743791 0.39597596 -0.038868 3.000000
0.298362 -0.011067 -0.898293 -0.94603139 0.32273613 -0.02942801 3.000000
0.297309 -0.015560 -0.917549 -0.94383319 0.32945407 -0.02527701 3.000000
0.294578 -0.019985 -0.873238 -0.91667967 0.39788985 -0.03717599 3.000000
0.295814 -0.015484 -0.855172 -0.9454283 0.3224511 -0.04680401 3.000000
0.295829 -0.011013 -0.829750 -0.94104621 0.33493007 -0.04747501 3.000000
0.299689 -0.006565 -0.880745 -0.93954146 0.33996881 -0.04102498 3.000000
0.296241 -0.006542 -0.806618 -0.93763866 0.34488488 -0.04345298 3.000000
0.300010 -0.002087 -0.857125 -0.97248157 0.22697713 -0.05254503 3.000000
0.298347 -0.002018 -0.793740 -0.92837766 0.37128986 -0.01608599 3.000000
0.297919 0.002437 -0.765633 -0.96888521 0.24717505 -0.012882 3.000000
0.299964 0.020237 -0.729073 -0.9042418 0.4269459 0.007998 3.000000
0.298225 0.015835 -0.690743 -0.94903427 0.31389409 -0.02836301 3.000000
0.298347 0.020306 -0.665932 -0.96338707 0.26526602 -0.038978 3.000000
0.295646 0.020344 -0.596321 -0.98552244 0.16667607 -0.03105801 3.000000
0.298575 0.029240 -0.616249 -0.98994198 0.13256 -0.049424 3.000000
0.297141 0.033665 -0.582131 -0.98727672 0.15439296 -0.03804599 3.000000
0.300437 0.038105 -0.629769 -0.97482983 0.21791096 -0.04713399 3.000000
0.297111 0.038135 -0.556404 -0.98906288 0.14743598 -0.004154 3.000000
0.298453 0.042629 -0.538857 -0.98004623 0.18919204 0.06095701 3.000000
0.300834 0.047161 -0.527535 -0.98813785 0.14966798 0.03439599 3.000000
0.302329 0.051670 -0.510994 -0.99803944 0.05060102 -0.03683502 3.000000
0.299796 0.056065 -0.470314 -0.99710781 -0.05774999 -0.04940599 3.000000
0.298286 0.060482 -0.435738 -0.99602892 0.08570099 -0.024119 3.000000
0.298972 0.064968 -0.414223 -0.981907 0.18919 -0.008111 3.000000
0.293387 0.078190 -0.304085 -0.98786514 -0.14455802 0.05679301 3.000000
0.293372 0.073727 -0.329598 -0.99951583 0.03074499 -0.004781 3.000000
0.291953 0.082485 -0.323403 -0.95282041 -0.30351713 0.003258 3.000000
0.295936 0.082729 -0.293862 -0.93980808 -0.09970101 0.32683403 3.000000
0.298759 0.087284 -0.285225 -0.93507887 -0.12509098 0.33163195 3.000000
0.304221 0.096378 -0.267006 -0.90604165 -0.15084894 0.39538985 3.000000
0.307029 0.100918 -0.258126 -0.87720277 -0.30832592 0.3680359 3.000000
0.313865 0.114521 -0.222542 -0.89761026 -0.3476511 0.27098808 3.000000
0.311683 0.109989 -0.234932 -0.92500813 -0.26449904 0.27276404 3.000000
0.315925 0.119045 -0.209328 -0.86022912 -0.44461806 0.24964103 3.000000
0.317634 0.123562 -0.193978 -0.80968084 -0.54983089 0.20518996 3.000000
0.318702 0.128055 -0.174874 -0.82422657 -0.54769371 0.14381292 3.000000
0.319022 0.132534 -0.151253 -0.8598121 -0.49834406 0.11124901 3.000000
0.319709 0.137012 -0.129799 -0.87747362 -0.4564358 0.14733094 2.000000
0.324439 0.137287 -0.104714 -0.86231281 -0.4741539 0.17774896 2.000000
0.325584 0.141781 -0.086067 -0.88080024 -0.43538012 0.18610505 2.000000
0.323691 0.150532 -0.077095 -0.90790588 -0.36540195 0.20539797 2.000000
-0.353982 -0.170498 1.632255 0.83268145 -0.04915503 0.5515663 1.000000
0.328345 0.168522 -0.002754 -0.88239096 -0.45568798 0.11719499 2.000000
0.329124 0.173023 0.018058 -0.90836202 -0.39072701 0.149033 2.000000
0.330817 0.177532 0.033470 -0.84950628 -0.45157715 0.27279509 2.000000
0.337073 0.177845 0.049461 -0.79778926 -0.54607118 0.25561408 2.000000
0.334022 0.186558 0.065361 -0.72833505 -0.66951605 0.14586401 2.000000
0.333579 0.191006 0.093589 -0.7672687 -0.63382575 0.09779396 2.000000
0.333777 0.195476 0.117881 -0.85736413 -0.49334007 0.14677302 2.000000
0.335792 0.204464 0.156944 -0.88700973 -0.44195886 0.13373896 2.000000
0.336356 0.208942 0.179100 -0.88238269 -0.45633184 0.11472596 2.000000
0.323630 0.230877 0.383171 -0.09835702 -0.53890412 0.83660519 2.000000
0.319938 0.226307 0.379753 -0.13971201 -0.51818505 0.84378007 2.000000
0.330939 0.240040 0.390403 -0.23992595 -0.66954987 0.70294986 2.000000
0.334037 0.244594 0.397361 -0.29827704 -0.79251709 0.53192806 2.000000
0.336707 0.249142 0.406944 -0.09809602 -0.81566014 0.5701541 2.000000
0.340339 0.253704 0.410759 0.37713084 -0.59258075 0.7117727 2.000000
0.344596 0.258305 0.410698 0.55933515 -0.47190413 0.68150619 2.000000
0.348899 0.262890 0.410515 0.60883396 -0.50246897 0.61387796 2.000000
0.353187 0.267490 0.410301 0.69323713 -0.48140509 0.5363501 2.000000
0.357902 0.272091 0.407615 0.80685707 -0.34692103 0.47815004 2.000000
0.363669 0.276714 0.398887 0.86447133 -0.18824507 0.46610418 2.000000
0.371177 0.281490 0.385032 0.86709697 0.050106 0.49561298 2.000000
0.378272 0.286297 0.373039 0.79911207 0.13836801 0.58504205 1.000000
0.385215 0.291248 0.363060 0.79850856 0.06933096 0.59797767 1.000000
0.391151 0.295757 0.354667 0.85304221 -0.05106801 0.51933713 1.000000
0.397224 0.299839 0.344536 0.89749962 -0.03512999 0.43961382 1.000000
0.405082 0.304768 0.326896 0.9100521 0.034085 0.41309005 1.000000
0.412696 0.310184 0.308677 0.88899497 0.127119 0.43991898 1.000000
0.418494 0.314403 0.297844 0.85459295 0.027853 0.51855097 1.000000
0.423377 0.318722 0.290275 0.83485114 -0.05901601 0.54730309 1.000000
-0.359506 -0.175129 1.639854 0.82158091 -0.07603299 0.56499894 1.000000
0.435340 0.327778 0.271446 0.88816932 0.04275302 0.45752316 1.000000
0.442939 0.332745 0.255027 0.88669976 0.15279596 0.43636788 1.000000
0.453208 0.338085 0.231529 0.87570861 0.2193749 0.43012681 1.000000
0.460441 0.342800 0.215110 0.86699873 0.13180496 0.48056285 1.000000
0.464774 0.347423 0.208091 0.8379944 0.07960404 0.53984126 1.000000
0.469550 0.351887 0.199882 0.84663001 0.224615 0.48245801 1.000000
0.478568 0.358356 0.177330 0.87282813 0.32585905 0.36330006 1.000000
0.485984 0.361957 0.153251 0.88961151 0.25848715 0.37653122 1.000000
0.492240 0.365551 0.139946 0.85564024 0.09767403 0.50827115 1.000000
0.498282 0.362087 0.131981 0.77721003 0.077905 0.62440002 1.000000
0.503120 0.374546 0.125541 0.75059085 0.03748999 0.65970287 1.000000
0.508216 0.379169 0.119896 0.7527268 0.03451099 0.65742783 1.000000
0.513343 0.383991 0.113609 0.80279229 0.06181202 0.59304621 1.000000
0.518989 0.388790 0.103843 0.87089409 0.13333601 0.47303805 1.000000
0.525947 0.393413 0.088249 0.8718957 0.19406793 0.44959485 1.000000
0.533454 0.397976 0.072319 0.84639975 0.18854395 0.49805485 1.000000
0.540122 0.402744 0.060478 0.81538128 0.17726906 0.55111619 1.000000
0.552497 0.413082 0.038810 0.84751359 0.13155994 0.51421075 1.000000
-0.364968 -0.179752 1.646965 0.82158466 -0.15420094 0.54883578 1.000000
0.563804 0.421726 0.017845 0.86127012 0.13170702 0.49078207 1.000000
0.570533 0.426372 0.003868 0.87450884 0.17209197 0.45345192 1.000000
0.591926 0.432354 -0.039315 0.85374144 0.13576107 0.50268726 1.000000
0.590293 0.440845 -0.037209 0.86213268 0.01603399 0.50642881 1.000000
0.595542 0.445469 -0.046700 0.89738107 0.08897901 0.43219203 1.000000
0.605170 0.450428 -0.068459 0.91196277 0.11598197 0.3935379 1.000000
-0.370355 -0.184383 1.653770 0.84251317 -0.18320304 0.5065651 1.000000
-0.376046 -0.189030 1.662376 0.8817043 -0.11658104 0.45717216 1.000000
-0.382394 -0.193668 1.674827 0.8947482 -0.04872301 0.4439051 1.000000
-0.388543 -0.198330 1.686180 0.85703035 -0.07944103 0.50910521 1.000000
-0.393868 -0.202953 1.692528 0.78431527 -0.17856706 0.5941072 1.000000
-0.409081 -0.216801 1.707054 0.77149131 -0.25877711 0.58123624 1.000000
-0.413934 -0.221417 1.710685 0.72079231 -0.28726812 0.63082127 1.000000
-0.418740 -0.226025 1.713890 0.74546019 -0.18297805 0.64094316 1.000000
-0.424035 -0.230648 1.720085 0.82307395 0.039255 0.56657596 1.000000
-0.430291 -0.235302 1.732048 0.88139681 0.06405199 0.4680139 1.000000
-0.436746 -0.239964 1.745201 0.88808623 -0.04218501 0.45773712 1.000000
-0.442513 -0.244602 1.754265 0.86546312 -0.13547502 0.48230707 1.000000
-0.609200 -0.511402 1.940819 0.69770131 -0.4337542 0.57014926 1.000000
-0.613778 -0.516010 1.942711 0.69126506 -0.45679204 0.55990504 1.000000
-0.604714 -0.506802 1.939445 0.72836033 -0.37994217 0.57020626 1.000000
-0.599801 -0.502186 1.935600 0.83121723 -0.24077907 0.50110214 1.000000
-0.594048 -0.497555 1.926628 0.87708909 -0.16037002 0.45276505 1.000000
-0.588052 -0.492909 1.916191 0.86199257 -0.18896291 0.47038477 1.000000
-0.582589 -0.488285 1.909050 0.81461408 -0.30754003 0.49175505 1.000000
-0.570657 -0.487789 1.890953 0.79181712 -0.31781105 0.52155708 1.000000
-0.565469 -0.483173 1.885368 0.82456551 -0.25317085 0.5059607 1.000000
-0.559960 -0.478550 1.877891 0.84423992 -0.21771998 0.48975195 1.000000
-0.555993 -0.465160 1.877342 0.83990492 -0.20197698 0.50375095 1.000000
-0.448403 -0.249241 1.763969 0.88967548 -0.07126104 0.45099824 1.000000
-0.455651 -0.245121 1.779564 0.91296084 0.001008 0.40804593 1.000000
-0.462396 -0.258595 1.796776 0.91223777 -0.006849 0.40960389 1.000000
-0.528588 -0.441998 1.840751 0.82285393 -0.20018398 0.53182495 1.000000
-0.523461 -0.437389 1.835624 0.75511272 -0.25065591 0.60578577 1.000000
-0.518517 -0.432781 1.831596 0.77831604 -0.18640901 0.59956303 1.000000
-0.513329 -0.428150 1.825920 0.8220931 0.012167 0.56922307 1.000000
-0.507317 -0.423504 1.815452 0.84737714 0.12066702 0.51709908 1.000000
-0.501077 -0.418858 1.803673 0.85312149 0.07380604 0.51646529 1.000000
-0.495446 -0.414219 1.795433 0.8398508 -0.09954398 0.53361187 1.000000
-0.489968 -0.409588 1.788078 0.83966015 -0.14739803 0.52272809 1.000000
-0.484399 -0.404957 1.780266 0.83299279 -0.12449797 0.53909486 1.000000
-0.479073 -0.400333 1.773948 0.77423 -0.180966 0.606481 1.000000
-0.469048 -0.391110 1.764915 0.77078237 -0.17061108 0.61382929 1.000000
-0.468286 -0.263226 1.806480 0.83916093 -0.25409898 0.48087696 1.000000
-0.463616 -0.386479 1.757927 0.85049005 -0.10596901 0.51520603 1.000000
-0.450921 -0.385967 1.735222 0.86470704 -0.099799 0.49226202 1.000000
-0.451943 -0.377194 1.738975 0.84683059 -0.15081293 0.51003275 1.000000
-0.446603 -0.372578 1.732567 0.80242227 -0.19598807 0.56365519 1.000000
-0.441400 -0.367954 1.726921 0.82787217 -0.16780504 0.53522811 1.000000
-0.435784 -0.363316 1.718803 0.87035989 -0.14431798 0.47079294 1.000000
-0.429910 -0.358677 1.709099 0.87197919 -0.17665504 0.4565581 1.000000
-0.424142 -0.354038 1.700157 0.8565451 -0.21636503 0.46852606 1.000000
-0.412866 -0.344769 1.683555 0.8813804 -0.00364 0.47239321 1.000000
-0.478600 -0.272472 1.817283 0.814988 -0.299533 0.496059 1.000000
-0.400308 -0.335461 1.659446 0.87249017 -0.020365 0.4882071 1.000000
-0.394662 -0.330822 1.651085 0.82602758 -0.15259292 0.54258072 1.000000
-0.389489 -0.326199 1.645591 0.78185108 -0.28391803 0.55506706 1.000000
-0.384499 -0.321591 1.641350 0.76776399 -0.33366399 0.54699799 1.000000
-0.379449 -0.316975 1.636558 0.78717421 -0.24753807 0.56487315 1.000000
-0.374261 -0.312351 1.630974 0.79428013 -0.20686603 0.57124909 1.000000
-0.369134 -0.307736 1.625816 0.77545069 -0.20576192 0.59694076 1.000000
-0.364083 -0.303127 1.621116 0.78487604 -0.17192701 0.59532403 1.000000
-0.358804 -0.298496 1.614982 0.83795679 -0.05669299 0.54278386 1.000000
-0.352822 -0.293850 1.604637 0.87551595 0.049791 0.48061697 1.000000
-0.340218 -0.284550 1.580284 0.84247414 0.027113 0.53805409 1.000000
-0.489251 -0.281727 1.830009 0.81721908 -0.26018802 0.51425205 1.000000
-0.494424 -0.286343 1.835411 0.79721379 -0.25310893 0.54807485 1.000000
-0.329080 -0.275288 1.564628 0.81327079 -0.05235999 0.57952485 1.000000
-0.323632 -0.270649 1.557457 0.83320218 -0.11324102 0.54124911 1.000000
-0.318108 -0.266018 1.549888 0.85281274 -0.15677395 0.49812885 1.000000
-0.312432 -0.261379 1.541374 0.86538424 -0.16427805 0.47341613 1.000000
-0.499551 -0.290966 1.840660 0.80334807 -0.21761602 0.55432405 1.000000
-0.290185 -0.242855 1.510216 0.82369313 -0.20319303 0.52937908 1.000000
-0.288629 -0.251621 1.503258 0.83632494 -0.23149598 0.49696097 1.000000
-0.284829 -0.238232 1.503654 0.84684757 -0.16172892 0.50664874 1.000000
-0.279015 -0.233585 1.494346 0.88210518 -0.18738804 0.43217609 1.000000
-0.272958 -0.228947 1.483574 0.88803747 -0.16234509 0.43015523 1.000000
-0.266778 -0.224293 1.472130 0.89156649 -0.13852092 0.43118575 1.000000
-0.260568 -0.219639 1.460411 0.88943108 -0.11593301 0.44212204 1.000000
-0.254449 -0.214993 1.449272 0.88602935 -0.06966603 0.45836518 1.000000
-0.248406 -0.210339 1.438621 0.86709048 -0.03840202 0.49666828 1.000000
-0.242623 -0.205708 1.429558 0.83025107 -0.044002 0.55565005 1.000000
-0.237222 -0.201084 1.422691 0.77387416 -0.04924301 0.63142213 1.000000
-0.232049 -0.196461 1.417228 0.70246991 -0.04758499 0.7101209 1.000000
-0.227105 -0.191845 1.413109 0.58696827 -0.10377605 0.80293137 1.000000
0.284370 -0.038021 -0.860848 -0.89264596 0.44933298 -0.03582 3.000000
0.286506 -0.033489 -0.848152 -0.87515605 0.48318303 -0.02522 3.000000
0.290839 -0.019978 -0.797432 -0.92411762 0.37909785 -0.04786898 3.000000
0.284553 -0.028973 -0.757332 -0.89918221 0.4363861 -0.03222601 3.000000
0.290229 -0.015522 -0.768288 -0.94709684 0.31600495 -0.05611099 3.000000
0.290687 -0.011051 -0.745400 -0.88416873 0.46626286 -0.02906199 3.000000
0.293632 -0.006504 -0.737496 -0.82844709 0.55990606 -0.01344 3.000000
0.295997 0.015888 -0.623879 -0.99232884 0.12310598 -0.011331 3.000000
0.294974 0.011402 -0.643410 -0.96811469 0.25041392 -0.006842 3.000000
0.295356 0.024799 -0.569039 -0.99693728 0.07785602 -0.007382 3.000000
0.296348 0.029301 -0.549477 -0.99750236 0.03843701 0.05925902 3.000000
0.298102 0.033810 -0.534371 -0.99209763 -0.01447999 0.12462995 3.000000
0.300086 0.038341 -0.520821 -0.99373829 0.02364601 0.10920203 3.000000
0.301749 0.042858 -0.505257 -0.99318825 -0.11109203 0.03515201 3.000000
0.299415 0.047253 -0.465676 -0.99837282 0.04201999 -0.03854899 3.000000
0.297126 0.051639 -0.426338 -0.99727359 0.05998998 -0.04297198 3.000000
0.296531 0.056087 -0.397286 -0.99843473 0.05181599 -0.02105199 3.000000
0.296485 0.060551 -0.371498 -0.99679846 0.07739104 -0.02008601 3.000000
0.294700 0.069431 -0.309731 -0.98603365 -0.14816795 0.07605197 3.000000
0.296393 0.073933 -0.294258 -0.95498291 -0.13204599 0.26565297 3.000000
0.299308 0.078495 -0.286232 -0.9288782 -0.10987102 0.35371408 3.000000
0.301963 0.083034 -0.276955 -0.93242935 -0.12415705 0.33935313 3.000000
0.310721 0.096691 -0.252846 -0.90784895 -0.25816298 0.33039698 3.000000
0.312964 0.101215 -0.240303 -0.94033718 -0.24164105 0.23953204 3.000000
0.315040 0.105747 -0.227272 -0.94836384 -0.19235697 0.25219996 3.000000
0.319678 0.114818 -0.203865 -0.9005363 -0.34658512 0.26251309 3.000000
0.321479 0.119343 -0.189186 -0.88287325 -0.43420612 0.17888505 3.000000
0.322242 0.123829 -0.168251 -0.90008728 -0.42546913 0.09390903 3.000000
0.322242 0.128284 -0.142617 -0.89927402 -0.42522701 0.102412 2.000000
0.323081 0.132778 -0.122139 -0.895858 -0.414026 0.16131 2.000000
0.327216 0.146297 -0.070320 -0.86921416 -0.43064108 0.24293004 2.000000
0.329200 0.150822 -0.056649 -0.86217127 -0.45256614 0.22769407 2.000000
0.330695 0.155331 -0.040016 -0.86349964 -0.4757868 0.16731793 2.000000
0.334113 0.151096 -0.032662 -0.89208413 -0.43793806 0.11133802 2.000000
0.331702 0.164287 0.005027 -0.87308989 -0.47091194 0.12631698 2.000000
0.332694 0.168781 0.024559 -0.86081866 -0.47051581 0.19392292 2.000000
-0.517434 -0.296093 1.868889 0.87182886 -0.10035898 0.47941893 1.000000
-0.522546 -0.309506 1.876213 0.85019792 -0.07966399 0.52040095 1.000000
0.338264 0.182339 0.067863 -0.78652487 -0.6058359 0.11975598 2.000000
0.337516 0.186787 0.097892 -0.80164501 -0.592845 0.076812 2.000000
0.337302 0.191234 0.124717 -0.85568819 -0.50655811 0.10581402 2.000000
0.339088 0.200230 0.165031 -0.8853742 -0.4432951 0.14000703 2.000000
-0.528115 -0.314144 1.884117 0.80511437 -0.09407604 0.58561127 1.000000
0.339850 0.204708 0.186088 -0.84153116 -0.5177171 0.15425403 2.000000
0.324927 0.222118 0.377708 -0.10869197 -0.45271888 0.88500377 2.000000
0.328696 0.226696 0.380607 -0.07992899 -0.52790192 0.84553588 2.000000
0.332374 0.231281 0.384086 -0.16624897 -0.5867969 0.79248387 2.000000
0.335868 0.235844 0.388786 -0.29883206 -0.66302512 0.68636513 2.000000
0.338965 0.240398 0.395775 -0.33944098 -0.73360296 0.58873297 2.000000
0.342048 0.244953 0.402763 0.05929599 -0.69417794 0.71735694 2.000000
0.346152 0.249538 0.403801 0.52466875 -0.42883879 0.73540465 2.000000
0.350761 0.254146 0.401664 0.69429426 -0.30625712 0.65127725 2.000000
0.355613 0.258762 0.398155 0.75103517 -0.35382508 0.55745313 2.000000
0.360618 0.263378 0.393638 0.77067086 -0.37045893 0.51848491 2.000000
0.366050 0.267841 0.388389 0.8031221 -0.30800204 0.51002906 2.000000
0.372581 0.272655 0.381706 0.80987584 -0.14735497 0.56779189 2.000000
0.378516 0.277386 0.374046 0.79427694 0.0372 0.60641595 1.000000
0.385032 0.282253 0.365379 0.81291604 0.10930701 0.57203103 1.000000
0.392631 0.286640 0.352562 0.88035141 0.07551504 0.46827222 1.000000
0.399467 0.291111 0.338188 0.89828923 -0.010994 0.43926711 1.000000
0.406577 0.296223 0.323143 0.89837662 0.008016 0.43915281 1.000000
0.413917 0.301281 0.308372 0.88319952 0.08533995 0.46116775 1.000000
0.420173 0.306202 0.295982 0.85668778 0.10222897 0.50560387 1.000000
0.425345 0.310505 0.287224 0.81925551 0.11480993 0.56181766 1.000000
0.430976 0.315235 0.278526 0.84767095 0.000629 0.53052197 1.000000
0.436835 0.319584 0.268394 0.86963474 0.04305299 0.49181486 1.000000
0.450889 0.329067 0.241752 0.86254407 0.20780102 0.46134203 1.000000
0.459983 0.334064 0.219932 0.85528783 0.26038495 0.44797591 1.000000
0.465964 0.338764 0.207267 0.8230697 0.18434293 0.5371908 1.000000
0.469901 0.343395 0.201256 0.79802742 0.15170908 0.58321231 1.000000
0.477439 0.349506 0.188713 0.85148801 0.29775001 0.43164001 1.000000
0.485328 0.353847 0.162895 0.87328773 0.35226589 0.3365669 1.000000
0.492744 0.358028 0.141319 0.85465506 0.27883302 0.43796903 1.000000
0.508597 0.370815 0.119926 0.75443692 0.09099899 0.65003393 1.000000
0.514182 0.375492 0.112724 0.82606281 0.020968 0.56318787 1.000000
0.519431 0.379864 0.104179 0.88343001 0.026326 0.467823 1.000000
0.525474 0.384403 0.091819 0.8938112 0.06101601 0.4442731 1.000000
0.532767 0.389156 0.076072 0.88084382 0.08769898 0.46521291 1.000000
0.539466 0.393650 0.063499 0.84220737 0.10217704 0.52938323 1.000000
0.545829 0.398502 0.053154 0.82741172 0.12942896 0.54647781 1.000000
0.552466 0.403438 0.041191 0.84585399 0.137485 0.51539199 1.000000
0.559348 0.408794 0.028373 0.86623114 0.11841302 0.48540908 1.000000
0.565131 0.413685 0.016594 0.87807104 0.076875 0.47231502 1.000000
0.578742 0.413029 -0.009194 0.88026516 0.07719701 0.46816009 1.000000
0.578147 0.422893 -0.010018 0.87852708 0.12858101 0.46006204 1.000000
0.585929 0.427692 -0.027016 0.86592073 0.19253794 0.46163886 1.000000
0.597861 0.436970 -0.049935 0.86952315 0.12467502 0.47789708 1.000000
0.606132 0.442142 -0.068032 0.89862694 0.18269199 0.39886497 1.000000
0.614265 0.445980 -0.089791 0.90311773 0.12968896 0.40933988 1.000000
-0.533349 -0.318768 1.889976 0.76122502 -0.089018 0.64234902 1.000000
-0.538537 -0.323391 1.895561 0.76612181 -0.03262399 0.64186684 1.000000
-0.543893 -0.328014 1.902061 0.78285596 0.042716 0.62073496 1.000000
-0.549478 -0.332646 1.909996 0.77661268 0.09154996 0.62329074 1.000000
-0.554925 -0.337277 1.917198 0.73966334 -0.04799702 0.67126331 1.000000
-0.564950 -0.346500 1.926079 0.75724689 -0.08655599 0.64736791 1.000000
-0.570443 -0.351132 1.933494 0.85125046 0.00143 0.52475767 1.000000
-0.576592 -0.355785 1.944877 0.88308983 -0.008392 0.46912891 1.000000
-0.588525 -0.365078 1.965294 0.8621422 -0.11853703 0.49260511 1.000000
-0.594171 -0.369709 1.973594 0.83670886 -0.08096499 0.54162991 1.000000
-0.605935 -0.370190 1.990623 0.81558578 -0.10703297 0.56865084 1.000000
-0.610375 -0.383595 1.994072 0.82632494 -0.16210799 0.53935896 1.000000
-0.615914 -0.388226 2.001701 0.83191861 -0.2152549 0.51144576 1.000000
-0.621194 -0.392849 2.007774 0.80253555 -0.29030884 0.52120771 1.000000
-0.626183 -0.397465 2.012230 0.80183082 -0.27023994 0.53295188 1.000000
-0.631570 -0.402088 2.018913 0.84565615 -0.18304303 0.50135909 1.000000
-0.637216 -0.406719 2.027183 0.83698771 -0.21729192 0.50223082 1.000000
-0.642465 -0.411335 2.033134 0.81263059 -0.30149985 0.49872775 1.000000
-0.647683 -0.415958 2.038810 0.82582794 -0.29703198 0.47935396 1.000000
-0.653146 -0.420597 2.046074 0.85105927 -0.23631908 0.46888315 1.000000
-0.658883 -0.425228 2.054893 0.87251082 -0.14426197 0.4668119 1.000000
-0.664956 -0.429882 2.065788 0.88561716 -0.05585401 0.46104508 1.000000
-0.671136 -0.434528 2.077293 0.88662765 -0.07925297 0.45564282 1.000000
-0.669747 -0.443287 2.071220 0.88265888 -0.16517698 0.44003394 1.000000
-0.602776 -0.515553 1.930259 0.72113706 -0.36722203 0.58746005 1.000000
-0.597833 -0.510937 1.926109 0.83067293 -0.30372097 0.46662196 1.000000
-0.592233 -0.506306 1.918113 0.87153221 -0.26247806 0.4141701 1.000000
-0.586282 -0.501660 1.907921 0.86544525 -0.26308208 0.42637112 1.000000
-0.575616 -0.492413 1.895103 0.76225347 -0.35856822 0.53888633 1.000000
-0.553109 -0.482678 1.864738 0.82893284 -0.22509796 0.5120559 1.000000
-0.542550 -0.473438 1.852592 0.82161384 -0.24014595 0.5169919 1.000000
-0.543801 -0.464665 1.857719 0.83109594 -0.17189399 0.52889696 1.000000
-0.538354 -0.460041 1.850639 0.82172486 -0.14829397 0.5502519 1.000000
-0.526681 -0.459560 1.834068 0.80116466 -0.17159993 0.57331375 1.000000
-0.522485 -0.446163 1.832115 0.74041513 -0.19643904 0.64280412 1.000000
-0.512872 -0.436947 1.825554 0.71694024 -0.15352705 0.68001922 1.000000
-0.507516 -0.432324 1.819023 0.84370182 0.11090898 0.52522989 1.000000
-0.494927 -0.423008 1.794670 0.85493678 0.10017897 0.50896687 1.000000
-0.489129 -0.418377 1.785393 0.84862379 -0.02776199 0.52826787 1.000000
-0.483437 -0.413738 1.776817 0.83898404 -0.10154701 0.53459703 1.000000
-0.477929 -0.409107 1.769371 0.81316993 -0.17792098 0.55416495 1.000000
-0.472787 -0.404492 1.764183 0.77418153 -0.26266284 0.57589165 1.000000
-0.467828 -0.399876 1.760002 0.78210027 -0.25887209 0.5668372 1.000000
-0.462624 -0.395252 1.754326 0.8406082 -0.17637104 0.51212412 1.000000
-0.456872 -0.390614 1.745353 0.86920502 -0.098777 0.48448501 1.000000
-0.444329 -0.390110 1.723655 0.81255497 -0.15446999 0.56204398 1.000000
-0.440347 -0.376721 1.722893 0.80743688 -0.16733498 0.56572492 1.000000
-0.434716 -0.372082 1.714714 0.87735823 -0.08441002 0.47235313 1.000000
-0.428491 -0.367436 1.702965 0.8876492 -0.11054702 0.4470551 1.000000
-0.422540 -0.362797 1.692833 0.86182635 -0.18313507 0.47298719 1.000000
-0.417123 -0.358166 1.685875 0.81808121 -0.21119305 0.53492114 1.000000
-0.411889 -0.353542 1.680076 0.82822071 -0.14123095 0.54231381 1.000000
-0.406213 -0.348911 1.671623 0.86384272 -0.011166 0.50363784 1.000000
-0.399850 -0.344250 1.658989 0.87742261 0.05050898 0.47705179 1.000000
-0.393762 -0.339604 1.648063 0.84920309 -0.036936 0.52677305 1.000000
-0.388329 -0.334972 1.641075 0.78995716 -0.15486003 0.59328412 1.000000
-0.383294 -0.330364 1.636375 0.74135718 -0.21357005 0.63622116 1.000000
-0.378350 -0.325749 1.632316 0.74805478 -0.19990494 0.63281281 1.000000
-0.373300 -0.321133 1.627617 0.76447804 -0.15057801 0.62681703 1.000000
-0.362115 -0.320667 1.613975 0.78954795 -0.17958099 0.58682596 1.000000
-0.357888 -0.307270 1.611778 0.82466156 -0.12675709 0.55124037 1.000000
-0.352273 -0.302639 1.603721 0.87512086 -0.031655 0.48286793 1.000000
-0.339776 -0.293331 1.579887 0.87220909 -0.007672 0.48907305 1.000000
-0.334008 -0.288700 1.570854 0.84092643 -0.05389203 0.53845927 1.000000
-0.328454 -0.284062 1.563133 0.83422332 -0.05485802 0.54869121 1.000000
-0.322778 -0.279430 1.554649 0.86314315 -0.09828402 0.49530209 1.000000
-0.316873 -0.274784 1.544822 0.88802615 -0.15034203 0.43451907 1.000000
-0.310922 -0.270146 1.534721 0.87467617 -0.20696104 0.43830209 1.000000
-0.305108 -0.265507 1.525413 0.86083252 -0.24908315 0.44376227 1.000000
-0.299493 -0.260868 1.517235 0.84979125 -0.20868706 0.48405014 1.000000
-0.283105 -0.246990 1.495750 0.8583908 -0.24403894 0.4512319 1.000000
-0.271020 -0.237690 1.474357 0.88729684 -0.20315296 0.41404492 1.000000
-0.265084 -0.233044 1.464287 0.87642903 -0.20401201 0.43617801 1.000000
-0.259271 -0.228413 1.455009 0.87262975 -0.15458195 0.46327286 1.000000
-0.253411 -0.223766 1.445427 0.86848019 -0.09518302 0.48650011 1.000000
-0.247582 -0.219128 1.436058 0.86258089 -0.06328099 0.50194594 1.000000
-0.241845 -0.214489 1.427147 0.83856625 -0.05206402 0.54230616 1.000000
-0.236413 -0.209858 1.420158 0.78809707 -0.11332101 0.60503005 1.000000
-0.231378 -0.205242 1.415458 0.72147802 -0.146071 0.67685502 1.000000
-0.226479 -0.200634 1.411735 0.65951287 -0.15063297 0.73644585 1.000000
-0.221749 -0.196026 1.408867 0.58516703 -0.17791801 0.79115405 1.000000
0.286536 -0.024441 -0.743782 -0.95045515 0.30786105 -0.04308801 3.000000
0.286140 -0.019993 -0.715828 -0.9473288 0.31820993 -0.03620199 3.000000
0.287864 -0.015476 -0.700661 -0.88312307 0.46899504 0.011717 3.000000
0.290671 -0.010929 -0.691872 -0.89302488 0.44999894 0.002743 3.000000
0.295447 0.007076 -0.618355 -0.9836551 0.17944402 0.014916 3.000000
0.296043 0.007213 -0.568489 -0.99538035 0.09467003 0.01598601 3.000000
0.296027 0.016018 -0.570717 -0.99797637 -0.03390401 0.05379302 3.000000
0.297065 0.020512 -0.551400 -0.98707069 -0.11381796 0.11285796 3.000000
0.299094 0.025036 -0.537972 -0.9811908 -0.10795398 0.16003297 3.000000
0.301032 0.029552 -0.524025 -0.97649291 -0.16129398 0.14298899 3.000000
0.301887 0.034054 -0.503640 -0.99382032 -0.06903802 0.08691903 3.000000
0.296287 0.051739 -0.367897 -0.99997306 0.007126 0.001762 3.000000
0.295508 0.047253 -0.388863 -0.99114077 0.13254797 0.008427 3.000000
0.295814 0.056194 -0.339516 -0.9991927 -0.03978699 -0.005562 3.000000
0.295600 0.060657 -0.312722 -0.99609859 -0.08435397 0.02592299 3.000000
0.295142 0.064968 -0.337838 -0.98899289 -0.14778098 -0.007338 3.000000
0.297080 0.065159 -0.296059 -0.98034652 -0.08123704 0.1797811 3.000000
0.299888 0.069706 -0.287361 -0.93140732 -0.04239501 0.36150112 3.000000
0.305823 0.069981 -0.271981 -0.91884858 -0.12043795 0.37578183 3.000000
0.305152 0.078762 -0.269905 -0.91450404 -0.12783701 0.38384902 3.000000
0.308021 0.083225 -0.262459 -0.87917698 -0.134937 0.45698999 3.000000
0.311210 0.087871 -0.255776 -0.90157216 -0.14901303 0.40615607 3.000000
0.313972 0.092449 -0.245064 -0.95267128 -0.19357606 0.23440507 3.000000
0.315879 0.096966 -0.229988 -0.97000534 -0.15860505 0.18421206 3.000000
0.318046 0.101505 -0.217476 -0.96889711 -0.08627901 0.23193603 3.000000
0.320670 0.106037 -0.207650 -0.95477628 -0.11611803 0.27371308 3.000000
0.323066 0.110584 -0.196419 -0.94815912 -0.22417003 0.22526003 3.000000
0.324500 0.115093 -0.179451 -0.96300604 -0.25831801 0.076754 3.000000
0.325034 0.124035 -0.131569 -0.94115042 -0.32195414 0.10286605 2.000000
0.326697 0.128544 -0.115944 -0.87960689 -0.42273195 0.21814997 2.000000
0.329276 0.137554 -0.080269 -0.85720083 -0.47395391 0.20143096 2.000000
0.331061 0.142071 -0.065407 -0.8571797 -0.44847884 0.25319891 2.000000
0.333015 0.146587 -0.051613 -0.8785558 -0.4301129 0.20770795 2.000000
0.334464 0.155559 -0.009163 -0.90871689 -0.40458295 0.10269499 2.000000
0.335181 0.160053 0.012077 -0.889145 -0.431486 0.15245 2.000000
0.336524 0.164562 0.029442 -0.86097417 -0.44592409 0.24469405 2.000000
0.338676 0.169079 0.042198 -0.86295897 -0.40469498 0.30252899 2.000000
0.340934 0.173618 0.054222 -0.88108212 -0.42947306 0.19810903 2.000000
0.341880 0.178120 0.073997 -0.8330608 -0.54631287 0.08690198 2.000000
0.344657 0.178318 0.110801 -0.81925097 -0.56934998 0.068326 2.000000
0.341376 0.191486 0.153740 -0.90353343 -0.40502119 0.13994707 2.000000
0.342536 0.195988 0.172264 -0.87845261 -0.4488208 0.16395393 2.000000
0.343772 0.200489 0.190452 -0.82756192 -0.52733695 0.19250198 2.000000
0.344886 0.204983 0.209312 -0.80303329 -0.56770521 0.18124107 2.000000
0.340919 0.209209 0.205223 -0.7980732 -0.57509714 0.17984005 2.000000
0.321128 0.217541 0.374870 -0.20681502 -0.38579005 0.89910711 2.000000
0.325904 0.213344 0.374168 -0.22861506 -0.28840408 0.92981624 2.000000
0.333625 0.222507 0.378959 -0.19497399 -0.37086797 0.90798794 2.000000
0.337348 0.227085 0.382194 -0.20678701 -0.49735503 0.84254205 2.000000
0.345801 0.227459 0.385032 -0.19219207 -0.59971322 0.77679229 2.000000
0.344016 0.236210 0.393303 -0.19212205 -0.71811917 0.66887516 2.000000
