-0.745351 -0.057381 2.263107 0.86457717 -0.11612902 0.4888971 1.000000
-0.746404 -0.035050 2.272201 0.87363931 -0.13816305 0.46654617 1.000000
-0.745229 -0.030243 2.270858 0.89338413 -0.07598301 0.44282206 1.000000
-0.731557 -0.003037 2.251632 0.8375918 -0.16990996 0.51920187 1.000000
-0.738057 -0.000367 2.263351 0.85881979 -0.13084897 0.49528488 1.000000
-0.734624 0.017326 2.262679 0.83221288 -0.07379899 0.54952292 1.000000
-0.735540 0.011627 2.262923 0.84140727 -0.08227203 0.53410217 1.000000
-0.733968 0.023269 2.262191 0.79504585 -0.07484499 0.60191389 1.000000
-0.731923 0.042846 2.262222 0.8329057 -0.08451297 0.5469238 1.000000
-0.730901 0.048614 2.260818 0.87801914 -0.005308 0.47859608 1.000000
-0.726995 0.065399 2.253188 0.88976701 -0.018399 0.45604401 1.000000
-0.725423 0.072319 2.250991 0.8874412 -0.06767202 0.4559261 1.000000
-0.723974 0.077781 2.249282 0.86135618 -0.09886602 0.49828811 1.000000
-0.720495 0.096504 2.247817 0.8279292 -0.16346304 0.53648213 1.000000
-0.718267 0.109550 2.248916 0.82374595 -0.17297199 0.53992897 1.000000
-0.716039 0.120849 2.247726 0.81649806 -0.020642 0.57697905 1.000000
-0.712148 0.138755 2.243179 0.78206993 -0.10858999 0.61365694 1.000000
-0.709737 0.151260 2.242812 0.78456987 -0.10113398 0.6117369 1.000000
-0.704381 0.179237 2.235275 0.78705848 0.03032902 0.61613237 1.000000
-0.702611 0.191123 2.231735 0.79566271 0.04287298 0.60422078 1.000000
-0.699911 0.209625 2.226974 0.79098387 0.03498599 0.6108359 1.000000
-0.694265 0.212905 2.219589 0.79836391 0.039522 0.60087693 1.000000
-0.693303 0.238983 2.216567 0.85858242 -0.04962402 0.51026825 1.000000
-0.696050 0.228202 2.220992 0.85019399 0.024223 0.52591199 1.000000
-0.691900 0.250877 2.216018 0.84172205 -0.044537 0.53807103 1.000000
-0.690252 0.258316 2.214004 0.83258169 -0.04007299 0.5524508 1.000000
-0.687002 0.269096 2.209975 0.81707534 -0.005223 0.57650724 1.000000
-0.685598 0.278984 2.207595 0.82467872 0.04048299 0.56415081 1.000000
-0.683980 0.289833 2.203506 0.80513585 0.10741198 0.58328289 1.000000
-0.683050 0.301918 2.199783 0.78009366 0.14408594 0.60884573 1.000000
-0.677724 0.305572 2.190841 0.82978361 0.23094689 0.50805776 1.000000
-0.681173 0.319648 2.189742 0.84513219 0.17165504 0.50624711 1.000000
-0.679342 0.331146 2.184798 0.85379592 0.11370999 0.50803795 1.000000
-0.676565 0.346206 2.173446 0.8638288 0.15530096 0.47925089 1.000000
-0.676183 0.362518 2.169235 0.87190306 0.08047201 0.48302103 1.000000
-0.672002 0.377998 2.157607 0.87156527 0.09797103 0.48039115 1.000000
-0.670446 0.383636 2.153701 0.85814008 0.06839901 0.50883905 1.000000
-0.668371 0.390449 2.150314 0.8323912 -0.02995901 0.55337813 1.000000
-0.659170 0.404647 2.137923 0.82702877 -0.03817599 0.56086184 1.000000
-0.665212 0.407371 2.147537 0.83209014 -0.05349001 0.55205509 1.000000
-0.663396 0.419136 2.144607 0.84969311 0.08243901 0.52079307 1.000000
-0.660894 0.429908 2.138290 0.84223986 0.10586198 0.52860691 1.000000
-0.659017 0.440765 2.132888 0.82213681 0.15051597 0.54903188 1.000000
-0.657674 0.451461 2.127425 0.81921097 0.19405199 0.53966398 1.000000
-0.652639 0.454490 2.118057 0.83778593 0.25331298 0.48368096 1.000000
0.347499 0.047218 0.313461 -0.20121394 0.02179899 0.97930473 2.000000
0.210719 -0.190690 0.120254 -0.18013601 0.97219806 0.14960601 2.000000
0.200892 -0.198090 0.159927 -0.22579498 0.96661592 0.12112099 2.000000
-0.766958 -0.179657 2.294723 0.8332609 -0.17623398 0.52403994 1.000000
-0.762639 -0.164139 2.293472 0.842381 -0.071902 0.534064 1.000000
-0.760076 -0.152756 2.290328 0.83431442 -0.02148001 0.55087028 1.000000
-0.757284 -0.141274 2.286208 0.81979302 -0.032163 0.57175602 1.000000
-0.756368 -0.134842 2.285934 0.81211965 -0.15269993 0.56315576 1.000000
-0.756292 -0.129471 2.287856 0.83199298 -0.107947 0.54418299 1.000000
-0.751790 -0.126015 2.281356 0.86150095 -0.053003 0.50498197 1.000000
-0.749502 -0.106942 2.276717 0.9087588 0.07597398 0.41034791 1.000000
-0.748083 -0.102379 2.271926 0.88846617 0.21608304 0.40489008 1.000000
-0.749761 -0.090561 2.268966 0.8662858 0.11028497 0.48722289 1.000000
-0.749090 -0.075280 2.266219 0.84034017 -0.02446301 0.54150711 1.000000
-0.748098 -0.067963 2.266555 0.8511252 -0.07092802 0.52014912 1.000000
-0.743856 -0.049859 2.262222 0.87599897 -0.135354 0.46293099 1.000000
-0.741063 -0.038712 2.260452 0.87896792 -0.11479099 0.46285896 1.000000
-0.738378 -0.027474 2.257308 0.87413077 -0.08648898 0.47792787 1.000000
-0.735296 -0.014802 2.254470 0.84239511 -0.11014101 0.52748407 1.000000
-0.733373 -0.009034 2.252700 0.85299272 -0.15049095 0.49975584 1.000000
-0.729452 0.009010 2.253249 0.81313869 -0.18835293 0.55075279 1.000000
-0.728948 0.014678 2.254592 0.76078898 -0.190321 0.62046599 1.000000
-0.727971 0.033645 2.255660 0.79344633 -0.03697202 0.60751625 1.000000
-0.726964 0.039688 2.254165 0.82067897 -0.002023 0.57138598 1.000000
-0.720907 0.036483 2.245681 0.82368993 0.07130799 0.56253895 1.000000
-0.724248 0.051155 2.248672 0.85415699 0.063797 0.51608699 1.000000
-0.721197 0.062583 2.242934 0.85106217 0.021511 0.52462411 1.000000
-0.719564 0.068656 2.240554 0.84455098 -0.051364 0.53300599 1.000000
-0.718236 0.075126 2.239578 0.82931698 -0.108269 0.54818899 1.000000
-0.716100 0.087181 2.239059 0.8172163 -0.11167904 0.56540721 1.000000
-0.707052 0.103691 2.229476 0.82813527 -0.12651004 0.54606518 1.000000
-0.708410 0.130256 2.236800 0.83600419 -0.08239202 0.54250212 1.000000
-0.706136 0.143165 2.236129 0.85269687 -0.09108599 0.51440392 1.000000
-0.703542 0.154602 2.234267 0.85646859 -0.08720496 0.50877976 1.000000
-0.701162 0.166008 2.231368 0.82752886 -0.021037 0.5610289 1.000000
-0.700261 0.171936 2.230270 0.81127001 -0.001768 0.58466901 1.000000
-0.698598 0.183448 2.227615 0.78780102 0.031004 0.61514901 1.000000
-0.694982 0.200874 2.222060 0.77078375 0.05756598 0.63449079 1.000000
-0.692953 0.220054 2.216933 0.83949255 0.08465195 0.53673671 1.000000
-0.690984 0.225631 2.212783 0.84438036 0.06056103 0.53231022 1.000000
-0.689168 0.231132 2.209335 0.84922343 0.004864 0.52801127 1.000000
-0.687963 0.236602 2.207778 0.82752915 -0.04722401 0.5594331 1.000000
-0.687169 0.242797 2.207473 0.84593601 -0.03396 0.53220201 1.000000
-0.684682 0.255989 2.205306 0.85397398 -0.0453 0.51833999 1.000000
-0.677266 0.263885 2.192977 0.88029614 -0.05692501 0.47099708 1.000000
-0.681966 0.266853 2.202132 0.85722069 -0.03822099 0.51352881 1.000000
-0.675649 0.280944 2.191634 0.87226222 -0.03238301 0.48796512 1.000000
-0.675344 0.287498 2.191207 0.84224185 0.04423599 0.5372819 1.000000
-0.678884 0.294540 2.195785 0.81745686 0.09409598 0.5682519 1.000000
-0.678487 0.300590 2.193893 0.83349998 0.150041 0.53175698 1.000000
-0.676580 0.310661 2.185653 0.87309885 0.22220196 0.43396392 1.000000
-0.675405 0.316680 2.180526 0.87251624 0.13719604 0.46892713 1.000000
-0.672918 0.334465 2.172073 0.87715005 0.16611301 0.45057103 1.000000
-0.673925 0.328743 2.175399 0.88713673 0.07632898 0.45515086 1.000000
-0.666067 0.341545 2.155502 0.86675308 0.16563701 0.47042904 1.000000
-0.671361 0.359191 2.159896 0.87462567 0.10988296 0.47218182 1.000000
-0.662847 0.367065 2.143508 0.85818595 0.075146 0.50780897 1.000000
-0.668828 0.370880 2.153304 0.86015109 0.08937801 0.50214706 1.000000
-0.664907 0.382766 2.145187 0.8388798 0.07351898 0.53932887 1.000000
-0.662694 0.388427 2.141708 0.81991904 -0.021516 0.57207503 1.000000
-0.653142 0.407417 2.128921 0.83715489 0.029737 0.54615693 1.000000
-0.651845 0.419006 2.125411 0.8402958 0.06487998 0.53823187 1.000000
-0.655279 0.433059 2.129287 0.82771878 0.07508598 0.55609685 1.000000
-0.654622 0.438682 2.127364 0.81027091 0.15111098 0.56623893 1.000000
-0.653936 0.444183 2.124740 0.82705432 0.19863108 0.5258582 1.000000
-0.646474 0.456993 2.105239 0.82834793 0.26848398 0.49168696 1.000000
-0.661428 0.466667 2.126052 0.83527019 0.30057807 0.4604091 1.000000
-0.648458 0.471260 2.099990 0.78078502 0.27781701 0.55963601 1.000000
-0.654897 0.470489 2.109603 0.77847112 0.30920505 0.54623708 1.000000
0.349833 0.041259 0.313491 -0.132359 -0.16267901 0.97776103 2.000000
0.367823 0.047805 0.315505 0.15874095 -0.001077 0.98731968 2.000000
-0.777151 -0.203469 2.303664 0.80250408 -0.14760601 0.57810005 1.000000
-0.761724 -0.217583 2.279189 0.79287671 -0.16250494 0.58731479 1.000000
-0.765401 -0.203415 2.287368 0.80960846 -0.10019606 0.57835533 1.000000
-0.775869 -0.197075 2.304061 0.83037488 -0.11464298 0.54528392 1.000000
-0.763311 -0.193070 2.284835 0.82583719 -0.11156603 0.55276212 1.000000
-0.759618 -0.182091 2.282943 0.79925812 -0.16672703 0.57739809 1.000000
-0.758260 -0.172463 2.284347 0.80868987 -0.17319297 0.56216091 1.000000
-0.755819 -0.161042 2.283553 0.81624606 -0.09899101 0.56916004 1.000000
-0.754766 -0.155137 2.282699 0.81609271 -0.02765799 0.5772588 1.000000
-0.747930 -0.139924 2.273818 0.82791797 -0.058585 0.55778098 1.000000
-0.751485 -0.118325 2.281234 0.89237694 0.004439 0.45126897 1.000000
-0.750615 -0.112465 2.279678 0.90597478 0.02669899 0.4224889 1.000000
-0.743947 -0.086022 2.259292 0.8276347 0.03310799 0.5602898 1.000000
-0.745305 -0.092759 2.262191 0.82835195 0.064909 0.55643497 1.000000
-0.742437 -0.079255 2.257156 0.81770571 -0.00544 0.57561079 1.000000
-0.741399 -0.072724 2.255843 0.82035393 0.017544 0.57158695 1.000000
-0.739354 -0.060364 2.252609 0.83969695 -0.019447 0.54270697 1.000000
-0.736379 -0.048241 2.249374 0.85245104 -0.103042 0.51255202 1.000000
-0.734350 -0.035882 2.248824 0.84180805 -0.10448401 0.52956803 1.000000
-0.727651 -0.032448 2.239242 0.82263791 -0.11752799 0.55628594 1.000000
-0.727682 -0.011445 2.243545 0.81777998 -0.111758 0.56457599 1.000000
-0.719900 -0.028534 2.229568 0.80120115 -0.11986002 0.58626811 1.000000
-0.726034 -0.005600 2.242934 0.77040971 -0.21783592 0.59917977 1.000000
-0.724996 0.000534 2.243972 0.74584315 -0.24817305 0.61816513 1.000000
-0.723134 0.018836 2.248489 0.77158904 -0.09514901 0.62896504 1.000000
-0.719030 0.011314 2.241439 0.78322537 -0.18790809 0.59266228 1.000000
-0.722265 0.024642 2.248061 0.78868092 -0.037222 0.61367494 1.000000
-0.715932 0.028717 2.239730 0.80588198 0.025566 0.59152398 1.000000
-0.718053 0.047927 2.239639 0.79116288 0.08836799 0.60518791 1.000000
-0.715200 0.059867 2.234390 0.78449712 0.06528801 0.6166861 1.000000
-0.713567 0.065635 2.231857 0.80077495 0.000674 0.59896496 1.000000
-0.712636 0.072090 2.231002 0.80712267 -0.07523997 0.58556976 1.000000
-0.705282 0.115104 2.229385 0.85131848 -0.08532605 0.51766429 1.000000
-0.702337 0.134391 2.227950 0.85669192 -0.09996199 0.50604995 1.000000
-0.692357 0.148323 2.212447 0.86619814 -0.08155801 0.49300008 1.000000
-0.698049 0.151672 2.223251 0.87192707 -0.10714001 0.47777004 1.000000
-0.695821 0.163818 2.222244 0.86732006 -0.09983001 0.48763704 1.000000
-0.695089 0.169792 2.222244 0.86408197 -0.095916 0.49412798 1.000000
-0.694494 0.175506 2.221938 0.85262673 -0.04806798 0.52030484 1.000000
-0.690999 0.193908 2.217544 0.82271931 -0.003634 0.56843621 1.000000
-0.689321 0.203620 2.214584 0.81311743 0.08476905 0.57589431 1.000000
-0.684606 0.229011 2.202773 0.83197185 0.023759 0.5543089 1.000000
-0.681005 0.246398 2.197738 0.87338707 -0.052792 0.48415704 1.000000
-0.674428 0.292289 2.189040 0.86940814 0.09329301 0.48520708 1.000000
-0.673726 0.298507 2.186141 0.8840489 0.18298998 0.43008395 1.000000
-0.669896 0.313858 2.170455 0.88908423 0.16745004 0.42601611 1.000000
-0.669118 0.319786 2.167129 0.88575184 0.10194298 0.45282592 1.000000
-0.663045 0.328994 2.153396 0.88074916 0.11397302 0.45966408 1.000000
-0.666906 0.336662 2.158889 0.8822628 0.12666697 0.4533959 1.000000
-0.660100 0.347030 2.143142 0.85922897 0.116598 0.49812698 1.000000
-0.663671 0.358787 2.146529 0.84359082 0.10729098 0.52615889 1.000000
-0.659063 0.380485 2.136764 0.83195466 0.03690698 0.55361477 1.000000
-0.651388 0.383636 2.125808 0.83497197 -0.006757 0.55025098 1.000000
-0.649297 0.393631 2.123336 0.8308897 -0.01985499 0.5560828 1.000000
-0.646612 0.421844 2.117416 0.84495811 0.08100101 0.52866307 1.000000
-0.650930 0.431076 2.123061 0.83608036 0.07018303 0.54409923 1.000000
-0.650182 0.436462 2.121017 0.85579654 0.10844407 0.50581832 1.000000
-0.649343 0.442108 2.117996 0.87705927 0.15897305 0.45331514 1.000000
-0.647573 0.451637 2.110427 0.86028088 0.22589097 0.45704494 1.000000
-0.642537 0.470077 2.092391 0.82357557 0.20635789 0.52833673 1.000000
-0.641240 0.476226 2.089553 0.82153326 0.05922602 0.56707618 1.000000
0.363383 0.100196 -0.051621 -0.97508277 -0.15744396 0.15628496 2.000000
0.358180 0.106460 -0.077775 -0.9667917 -0.19346794 0.16698495 2.000000
0.365138 0.093986 -0.047807 -0.96720312 -0.20362402 0.15184002 2.000000
-0.760930 -0.212006 2.279708 0.79709689 -0.14533098 0.58610192 1.000000
-0.760045 -0.206162 2.279739 0.80824974 -0.12401296 0.57563282 1.000000
-0.758672 -0.200821 2.278579 0.79208805 -0.028906 0.60972204 1.000000
-0.757894 -0.195298 2.277602 0.75651934 -0.13859606 0.63911628 1.000000
-0.753988 -0.184899 2.276229 0.73730592 -0.17696098 0.65196993 1.000000
-0.753545 -0.180214 2.276778 0.74527077 -0.12597196 0.6547538 1.000000
-0.753347 -0.175080 2.277389 0.78147841 -0.12041006 0.61220332 1.000000
-0.746786 -0.166527 2.270095 0.816017 -0.071674 0.573567 1.000000
-0.750448 -0.157692 2.276016 0.8547392 -0.02958101 0.51821412 1.000000
-0.743520 -0.141976 2.266189 0.87134019 -0.05452001 0.4876411 1.000000
-0.742757 -0.136277 2.264999 0.88834134 -0.006536 0.45913718 1.000000
-0.746923 -0.121811 2.271621 0.8961784 0.02710501 0.4428652 1.000000
-0.741918 -0.099946 2.258315 0.88251983 0.06584399 0.46564291 1.000000
-0.738378 -0.086419 2.251907 0.79930397 0.00949 0.60085198 1.000000
-0.727895 -0.067299 2.236282 0.83586123 0.006681 0.54890015 1.000000
-0.733388 -0.087609 2.245681 0.82541952 0.00991799 0.56443267 1.000000
-0.732229 -0.057099 2.242049 0.82426613 -0.04775501 0.56418509 1.000000
-0.729711 -0.045151 2.239913 0.81858204 -0.082864 0.56838103 1.000000
-0.722234 -0.014199 2.235610 0.78132831 -0.14694406 0.60657524 1.000000
-0.719655 0.004852 2.239761 0.74736801 -0.254131 0.61388801 1.000000
-0.718053 0.017425 2.241683 0.81551189 -0.11713298 0.56676293 1.000000
-0.716970 0.023117 2.241042 0.84808924 -0.09287503 0.52165015 1.000000
-0.707586 0.037406 2.227706 0.82130225 -0.03120601 0.56963918 1.000000
-0.713186 0.039726 2.235030 0.78601304 0.070803 0.61414203 1.000000
-0.698919 0.072425 2.213271 0.77791163 0.02263999 0.6279657 1.000000
-0.705572 0.075553 2.221755 0.80136586 -0.09812198 0.59007189 1.000000
-0.690786 0.094245 2.203658 0.82096383 -0.08315298 0.56489288 1.000000
-0.684057 0.131568 2.196029 0.85780053 -0.07601396 0.50833072 1.000000
0.279353 0.108146 -1.182206 -0.90401832 -0.42744515 -0.006443 3.000000
-0.691442 0.154739 2.212020 0.86420375 -0.09514097 0.49406485 1.000000
0.285700 0.099586 -0.732194 -0.76622214 -0.64197812 -0.02770801 3.000000
0.281840 0.104103 -0.720231 -0.9006432 -0.4334691 -0.03076301 3.000000
0.285868 0.102149 -0.777940 -0.93317494 -0.35917498 -0.013337 3.000000
-0.682714 0.175132 2.201064 0.87418643 -0.07690904 0.47946124 1.000000
-0.686101 0.191390 2.209609 0.86307713 -0.05810201 0.50171907 1.000000
-0.684316 0.202110 2.207198 0.8556531 0.004849 0.51752706 1.000000
-0.683339 0.206565 2.204849 0.85777596 0.12442999 0.49873598 1.000000
-0.682653 0.212417 2.201766 0.85664611 0.10428701 0.50525406 1.000000
-0.681188 0.220329 2.198074 0.85357548 0.05762603 0.51777229 1.000000
-0.679738 0.226303 2.195388 0.84400822 -0.006308 0.53629314 1.000000
-0.672338 0.235450 2.183639 0.84809005 -0.003103 0.52984303 1.000000
-0.674825 0.249633 2.187240 0.84783505 0.001789 0.53025703 1.000000
-0.673559 0.255867 2.185378 0.85380403 0.029128 0.51977902 1.000000
-0.666601 0.269828 2.172775 0.88605288 -0.035094 0.46225394 1.000000
-0.670659 0.284935 2.182845 0.89403282 0.009817 0.44789391 1.000000
-0.670980 0.278671 2.182906 0.89520452 -0.05435603 0.44232826 1.000000
-0.669912 0.290802 2.180465 0.90715093 0.08241499 0.41265597 1.000000
-0.668477 0.295967 2.175613 0.90371486 0.15795198 0.39793294 1.000000
-0.660360 0.303413 2.154983 0.88268115 0.08371601 0.46245608 1.000000
-0.664052 0.316764 2.158218 0.86799024 0.12099903 0.48161413 1.000000
-0.662282 0.334716 2.150161 0.87918012 0.11615502 0.46211506 1.000000
-0.654363 0.345916 2.133529 0.87276901 0.081279 0.481319 1.000000
-0.658178 0.352439 2.139480 0.8412797 0.07763297 0.53499681 1.000000
-0.655294 0.362663 2.133315 0.84687924 0.08808002 0.52444015 1.000000
-0.654455 0.369369 2.130630 0.84086987 0.03781199 0.53991492 1.000000
-0.647466 0.410423 2.120467 0.83317557 0.03141198 0.55211571 1.000000
-0.646963 0.416175 2.119094 0.83230072 0.08413097 0.54790281 1.000000
-0.641164 0.418724 2.108474 0.88751585 0.13171998 0.44154893 1.000000
-0.642309 0.449974 2.100845 0.88663745 0.15429108 0.43596822 1.000000
-0.639242 0.460388 2.090499 0.85561409 0.19110002 0.48104605 1.000000
-0.637853 0.467811 2.085677 0.84385232 0.11530904 0.5240392 1.000000
-0.632085 0.472236 2.076339 0.83839813 0.014883 0.54485509 1.000000
-0.640188 0.482460 2.088088 0.81219119 -0.02610201 0.58280714 1.000000
-0.758672 -0.232392 2.269729 0.79556187 -0.26172096 0.54642791 1.000000
-0.764730 -0.236252 2.276473 0.7825526 -0.23976888 0.57456271 1.000000
-0.761190 -0.244843 2.266891 0.77915189 -0.26344596 0.56878692 1.000000
-0.757680 -0.226830 2.270614 0.79305761 -0.2090859 0.57213872 1.000000
-0.756536 -0.220513 2.271072 0.82825591 -0.15434198 0.53867494 1.000000
-0.751562 -0.196740 2.269943 0.79349214 -0.14652103 0.59067911 1.000000
-0.749456 -0.183037 2.271194 0.774658 -0.148741 0.614639 1.000000
-0.747487 -0.171387 2.270644 0.80575264 -0.09037796 0.58531574 1.000000
-0.745061 -0.153748 2.267074 0.87932272 -0.03002599 0.47527885 1.000000
-0.741918 -0.131897 2.263137 0.89607405 0.051105 0.44095303 1.000000
-0.741353 -0.126397 2.261001 0.8956328 0.05494999 0.4413869 1.000000
-0.740957 -0.118935 2.258498 0.89998891 0.05843799 0.43197796 1.000000
-0.737966 -0.106957 2.251846 0.87760167 0.03951998 0.47775882 1.000000
-0.735464 -0.094704 2.247756 0.83779393 -0.01865 0.54566795 1.000000
-0.730337 -0.077500 2.240188 0.86603522 0.006072 0.49994613 1.000000
-0.721059 -0.062897 2.225692 0.82092104 -0.057573 0.56813203 1.000000
-0.725469 -0.053223 2.232772 0.80500669 -0.07845897 0.58805477 1.000000
-0.716924 -0.043343 2.222640 0.79924721 -0.08565602 0.59486716 1.000000
-0.722890 -0.041253 2.230911 0.79569312 -0.11843002 0.59400909 1.000000
-0.711431 -0.019974 2.220535 0.79493036 -0.12706606 0.59324527 1.000000
-0.716253 -0.010796 2.229110 0.75918787 -0.19596597 0.62066989 1.000000
-0.715551 -0.003869 2.230697 0.80192004 -0.18626401 0.56765303 1.000000
-0.714940 0.002510 2.232345 0.81745529 -0.20200407 0.53940819 1.000000
-0.714193 0.008979 2.233352 0.8410782 -0.15629804 0.51784012 1.000000
-0.713048 0.014991 2.233047 0.86936323 -0.10680803 0.48249313 1.000000
-0.693532 0.051773 2.208205 0.80798293 0.018354 0.58891995 1.000000
-0.695089 0.064811 2.209152 0.77490218 0.07982702 0.62702014 1.000000
-0.697881 0.078262 2.211990 0.796786 -0.050829 0.60212 1.000000
-0.697454 0.084907 2.211776 0.8145121 -0.06084501 0.57694707 1.000000
-0.690420 0.100273 2.203384 0.84094513 -0.06400201 0.53732209 1.000000
-0.689763 0.107139 2.202590 0.84754303 -0.032608 0.52972402 1.000000
-0.693868 0.115699 2.210067 0.85579205 -0.048377 0.51505303 1.000000
-0.692693 0.122894 2.208938 0.85878188 -0.08766899 0.50478493 1.000000
-0.682729 0.137153 2.194778 0.84218488 -0.08071699 0.53311293 1.000000
-0.685033 0.157829 2.201553 0.84376604 -0.064354 0.53283903 1.000000
-0.683965 0.163894 2.200881 0.86706253 -0.09430295 0.48919273 1.000000
-0.681463 0.189285 2.200485 0.88188669 -0.06791698 0.46654384 1.000000
-0.680364 0.194961 2.199752 0.88720693 -0.064909 0.45678297 1.000000
-0.679510 0.200447 2.198501 0.90623943 -0.004177 0.4227442 1.000000
-0.675252 0.217346 2.187667 0.8849601 0.04651301 0.46333805 1.000000
-0.673910 0.223320 2.185500 0.86054019 -0.05334001 0.50658211 1.000000
-0.660528 0.235801 2.165084 0.85373899 0.000461 0.52070099 1.000000
-0.668050 0.258316 2.175643 0.86816167 0.04716898 0.49403481 1.000000
-0.661626 0.266212 2.163039 0.88918875 0.05677098 0.45400487 1.000000
-0.665655 0.281890 2.171523 0.92163988 0.013223 0.38782095 1.000000
-0.664419 0.288154 2.168075 0.92629278 0.04729299 0.37382491 1.000000
-0.661519 0.298728 2.158614 0.90613527 0.13288004 0.40157412 1.000000
-0.653249 0.317092 2.139205 0.87125391 0.11983599 0.47597895 1.000000
-0.656286 0.338943 2.137649 0.8635204 0.12936206 0.48744023 1.000000
-0.652837 0.350746 2.130660 0.86269962 0.05270498 0.50296278 1.000000
-0.642553 0.364913 2.111282 0.86431976 0.02500199 0.50232086 1.000000
-0.645559 0.379943 2.116225 0.84555854 -0.02618202 0.53324034 1.000000
-0.642019 0.407737 2.111923 0.85076757 0.004632 0.52552173 1.000000
-0.636678 0.399063 2.103103 0.85259893 0.050624 0.52010795 1.000000
-0.641714 0.413375 2.110885 0.87024329 0.07495003 0.48688716 1.000000
-0.638326 0.436279 2.096420 0.88616918 0.14733403 0.43931409 1.000000
-0.637517 0.441947 2.093215 0.86942285 0.12862898 0.47703092 1.000000
-0.635595 0.453422 2.086776 0.86943429 0.15060105 0.47053516 1.000000
-0.635000 0.485076 2.081252 0.82952091 -0.012888 0.55832694 1.000000
-0.630575 0.483451 2.074172 0.86415087 0.028767 0.50240992 1.000000
-0.634282 0.490676 2.079391 0.85852283 0.07411499 0.5073909 1.000000
-0.629491 0.488960 2.071365 0.88976038 0.10484804 0.44422219 1.000000
0.286234 0.090415 -1.298936 -0.983618 -0.169333 0.061822 3.000000
0.283839 0.090888 -1.325150 -0.9750233 -0.20448106 0.08670103 3.000000
0.285151 0.084266 -1.317246 -0.98529744 -0.15282607 0.07637503 3.000000
-0.750326 -0.243516 2.253310 0.77200235 -0.23455711 0.59075827 1.000000
-0.762334 -0.251839 2.264877 0.75744615 -0.26147605 0.59825212 1.000000
-0.750875 -0.250573 2.251327 0.79088602 -0.28644901 0.54078301 1.000000
-0.754262 -0.234948 2.261977 0.79146332 -0.2399881 0.56213123 1.000000
-0.752782 -0.228707 2.262405 0.81528417 -0.19852604 0.54396611 1.000000
-0.747411 -0.204178 2.261916 0.83091964 -0.18097692 0.52613677 1.000000
-0.745183 -0.191788 2.263229 0.82977762 -0.16703392 0.53251176 1.000000
-0.744787 -0.186020 2.264114 0.84699023 -0.11838503 0.51825914 1.000000
-0.742971 -0.174614 2.263320 0.87841981 -0.02375699 0.4772989 1.000000
-0.734868 -0.154145 2.247512 0.89703994 -0.044544 0.43969897 1.000000
-0.737752 -0.139100 2.254989 0.89751373 -0.01765699 0.44063287 1.000000
-0.729497 -0.124894 2.237563 0.88655704 0.031244 0.46156302 1.000000
-0.725698 -0.112832 2.229964 0.8757013 0.01673401 0.48256316 1.000000
-0.731313 -0.103371 2.240188 0.86808506 -0.044287 0.49443603 1.000000
-0.728124 -0.090218 2.236709 0.86495289 -0.06871899 0.49712594 1.000000
-0.726415 -0.084923 2.233932 0.86855204 0.001713 0.49559502 1.000000
-0.718114 -0.077546 2.219100 0.8488412 -0.03829401 0.52725912 1.000000
-0.709524 -0.000947 2.222183 0.8578169 -0.12819899 0.49770994 1.000000
-0.705602 0.018508 2.219894 0.86244143 -0.12926391 0.48937268 1.000000
-0.703222 0.030159 2.219802 0.83678397 -0.14818299 0.52709998 1.000000
-0.688802 0.049316 2.201278 0.84081218 -0.03128601 0.54042212 1.000000
-0.690099 0.062728 2.202926 0.79334266 0.03032199 0.60801974 1.000000
-0.686849 0.080245 2.198592 0.78911035 0.00888 0.61418727 1.000000
-0.690954 0.087844 2.203628 0.78602193 -0.007432 0.61815394 1.000000
-0.687078 0.120018 2.199600 0.84312324 -0.04664801 0.53569316 1.000000
-0.673452 0.164855 2.183242 0.85710298 -0.035318 0.51393299 1.000000
-0.677129 0.177627 2.190688 0.88186873 -0.04606999 0.46923886 1.000000
-0.676763 0.186042 2.189834 0.90625161 -0.02984599 0.42168382 1.000000
-0.670644 0.208946 2.178603 0.8991541 -0.020685 0.43714305 1.000000
-0.661184 0.229049 2.165450 0.87274672 -0.11513496 0.47440185 1.000000
-0.659383 0.241195 2.162887 0.87879225 0.07010402 0.47202713 1.000000
-0.661107 0.272560 2.160537 0.91956019 0.08333402 0.38401108 1.000000
-0.658574 0.284637 2.152206 0.92452603 0.033992 0.37960001 1.000000
-0.655935 0.295822 2.145980 0.91138092 0.019024 0.41112396 1.000000
-0.655004 0.301414 2.143874 0.88733649 -0.02516601 0.46043525 1.000000
-0.643194 0.307434 2.122054 0.87974161 0.09785196 0.46527379 1.000000
-0.652456 0.322822 2.135909 0.86815454 0.13486108 0.47761929 1.000000
-0.639974 0.376777 2.107436 0.81142387 -0.08069299 0.57886091 1.000000
-0.639135 0.383064 2.107284 0.81185894 -0.07038999 0.57959496 1.000000
-0.638204 0.388649 2.106399 0.82547004 0.031469 0.56356803 1.000000
-0.635564 0.410720 2.099532 0.87649115 0.08513701 0.47383008 1.000000
-0.634878 0.416023 2.096969 0.87116887 0.15669798 0.46530693 1.000000
-0.632955 0.427421 2.089492 0.84114067 0.16924293 0.5136528 1.000000
-0.631612 0.438949 2.083724 0.84709267 0.14593094 0.5110168 1.000000
-0.630514 0.451293 2.078628 0.86438286 0.15619098 0.47796092 1.000000
-0.629339 0.456573 2.074630 0.86176685 0.15255897 0.48382192 1.000000
-0.628209 0.462371 2.071029 0.85835235 0.08379103 0.50617221 1.000000
-0.622045 0.472206 2.059280 0.878832 0.088531 0.468846 1.000000
-0.627431 0.497947 2.063461 0.88603804 0.18665901 0.42437602 1.000000
-0.619192 0.488739 2.050308 0.87616005 0.13597801 0.46244303 1.000000
-0.626470 0.508338 2.056533 0.87440103 0.18182301 0.44984801 1.000000
-0.751241 -0.257164 2.248031 0.80059483 -0.34850693 0.4874329 1.000000
-0.759115 -0.267220 2.253066 0.78160209 -0.35523904 0.51274106 1.000000
-0.754323 -0.268952 2.243850 0.79881593 -0.37259597 0.47229796 1.000000
-0.744756 -0.240014 2.246902 0.80538694 -0.21785298 0.55126396 1.000000
-0.743841 -0.233330 2.247756 0.81742223 -0.18029005 0.54709816 1.000000
-0.746877 -0.225068 2.254592 0.8181817 -0.18181793 0.5454548 1.000000
-0.735433 -0.198189 2.244460 0.8517776 -0.16077393 0.49862477 1.000000
-0.734823 -0.192177 2.244460 0.88889203 -0.07443 0.45203002 1.000000
-0.738790 -0.182724 2.254226 0.89334426 -0.06328702 0.44489413 1.000000
-0.735891 -0.166642 2.249007 0.90377714 -0.020376 0.42751807 1.000000
-0.727056 -0.138039 2.232864 0.88221278 -0.02326399 0.47027588 1.000000
-0.732229 -0.136002 2.243850 0.89537797 0.025065 0.44460099 1.000000
-0.722219 -0.094162 2.224960 0.87282059 -0.06417604 0.48380333 1.000000
-0.720739 -0.088212 2.223251 0.85899921 -0.05885201 0.50858313 1.000000
-0.716863 -0.071328 2.217910 0.82202116 -0.09417302 0.56161611 1.000000
-0.712728 -0.052353 2.215987 0.79808432 -0.10504704 0.59331824 1.000000
-0.709447 -0.039483 2.213851 0.79506608 -0.11080201 0.59631606 1.000000
-0.701558 -0.030854 2.205276 0.79530304 -0.10817701 0.59648203 1.000000
-0.705770 -0.022797 2.212386 0.8193191 -0.06053501 0.57013307 1.000000
-0.703939 -0.011048 2.210799 0.83225283 -0.09818898 0.54563189 1.000000
-0.703542 -0.004555 2.211196 0.83751901 -0.096055 0.53789901 1.000000
-0.699697 0.015052 2.208999 0.8340063 -0.14629005 0.53200819 1.000000
-0.690755 0.036590 2.202987 0.82786591 -0.14665198 0.54141594 1.000000
-0.690084 0.042640 2.202773 0.83423321 -0.05434601 0.54872714 1.000000
-0.685415 0.091400 2.196243 0.81561153 0.02119199 0.57821167 1.000000
-0.685033 0.096801 2.195297 0.85139295 0.006267 0.52449097 1.000000
-0.683355 0.111526 2.192733 0.86185185 -0.03986499 0.50559091 1.000000
-0.681768 0.117866 2.191299 0.84138439 -0.06198903 0.53687025 1.000000
-0.677205 0.140884 2.187728 0.81927911 -0.11188002 0.56237408 1.000000
-0.676412 0.147109 2.187454 0.8461102 -0.03595201 0.53179412 1.000000
-0.672521 0.169624 2.181747 0.89573677 0.02214599 0.44403288 1.000000
-0.671102 0.180442 2.177413 0.91393723 -0.02316201 0.4051941 1.000000
-0.666646 0.201377 2.168899 0.90437334 -0.05891202 0.42265616 1.000000
-0.663030 0.211837 2.164443 0.87917363 -0.10440996 0.46492181 1.000000
-0.656438 0.257255 2.154372 0.88540041 0.07717204 0.45837821 1.000000
-0.656042 0.263008 2.152236 0.88224404 0.13856201 0.44994002 1.000000
-0.653524 0.274391 2.142898 0.89049523 0.13536103 0.43439111 1.000000
-0.651800 0.280189 2.137893 0.87524981 0.09086698 0.4750589 1.000000
-0.650854 0.287033 2.135635 0.85427337 0.01170501 0.51969222 1.000000
-0.649862 0.298660 2.134719 0.85386104 -0.000118 0.52050102 1.000000
-0.649038 0.304130 2.132949 0.85524994 0.08877599 0.51055496 1.000000
-0.646795 0.320190 2.126205 0.88427827 0.13397904 0.44732713 1.000000
-0.645986 0.325752 2.122451 0.88095785 0.09913898 0.46269292 1.000000
-0.641988 0.345405 2.111282 0.87413096 0.065201 0.48129398 1.000000
-0.640691 0.351402 2.108382 0.87155438 0.04039202 0.48863221 1.000000
-0.634084 0.380882 2.100478 0.80145123 -0.07036602 0.59390617 1.000000
-0.628988 0.378738 2.093002 0.80955101 -0.087034 0.58056201 1.000000
-0.633291 0.386589 2.099685 0.81474584 0.013594 0.57965888 1.000000
-0.626058 0.394073 2.088546 0.82354435 0.11366005 0.55574823 1.000000
-0.631399 0.396392 2.095596 0.82071498 0.11283 0.56008599 1.000000
-0.629918 0.414123 2.089126 0.83293687 0.13581698 0.53644191 1.000000
-0.626607 0.435897 2.076858 0.84924692 0.17499798 0.49815195 1.000000
-0.622365 0.465911 2.060714 0.85862332 0.04512302 0.51061719 1.000000
-0.617895 0.499198 2.044418 0.86391903 0.15422701 0.47943502 1.000000
0.267146 0.139251 -1.103715 -0.91696378 -0.3986309 -0.016457 3.000000
0.267542 0.134353 -1.134019 -0.95766501 -0.284284 0.045391 3.000000
0.271922 0.127845 -1.105698 -0.92719727 -0.37410811 0.01866401 3.000000
0.271708 0.125259 -1.059708 -0.9224416 -0.38536183 -0.02444899 3.000000
-0.746343 -0.260247 2.237075 0.82970173 -0.34403389 0.43958586 1.000000
-0.751974 -0.277268 2.233382 0.82419997 -0.34429099 0.44961998 1.000000
-0.745336 -0.246735 2.245010 0.82809583 -0.30424994 0.4708389 1.000000
-0.742223 -0.226967 2.247146 0.84241528 -0.14000105 0.52032317 1.000000
-0.731573 -0.206528 2.235214 0.84248114 -0.14847003 0.51786309 1.000000
-0.730642 -0.163727 2.237655 0.9205003 -0.02449801 0.38997313 1.000000
-0.726201 -0.172661 2.226913 0.89486502 0.006738 0.44628601 1.000000
-0.728994 -0.149575 2.235152 0.90909185 -0.07258899 0.41022293 1.000000
-0.725377 -0.132325 2.229293 0.88456494 0.002746 0.46640897 1.000000
-0.719015 -0.115952 2.217483 0.87398599 0.003571 0.485938 1.000000
-0.717641 -0.110672 2.215102 0.85857473 -0.03250699 0.51165684 1.000000
-0.716710 -0.104439 2.214004 0.850215 -0.068652 0.52194 1.000000
-0.713735 -0.085854 2.212051 0.83332922 -0.06340902 0.54912814 1.000000
-0.705327 -0.066872 2.202651 0.81325005 -0.13983601 0.56486303 1.000000
-0.707113 -0.054596 2.208297 0.79721679 -0.12186097 0.59126584 1.000000
-0.698263 -0.045357 2.197494 0.80001486 -0.13410498 0.58480089 1.000000
-0.698339 -0.013794 2.202377 0.81443514 -0.06306701 0.5768171 1.000000
-0.696081 0.005821 2.201949 0.81663014 -0.09361202 0.5695191 1.000000
-0.694036 0.013076 2.200576 0.83245904 -0.11061501 0.54293303 1.000000
-0.691610 0.024566 2.200240 0.82955283 -0.16793397 0.53257889 1.000000
-0.685888 0.060958 2.197158 0.82673879 -0.016054 0.56235686 1.000000
-0.683431 0.072441 2.194015 0.84390716 -0.011996 0.5363551 1.000000
-0.681295 0.084129 2.190505 0.85572303 0.008519 0.51736402 1.000000
-0.680684 0.089118 2.189193 0.86902084 0.04420399 0.49279691 1.000000
-0.673757 0.098342 2.175704 0.87845374 0.012347 0.47766786 1.000000
-0.676504 0.115356 2.182357 0.8608652 -0.07117802 0.50383012 1.000000
-0.673574 0.125900 2.178603 0.85503855 -0.10114995 0.50860373 1.000000
-0.672277 0.138443 2.179610 0.85846504 -0.108615 0.50123902 1.000000
-0.671728 0.144126 2.179519 0.88203589 -0.030563 0.47018994 1.000000
-0.664953 0.183105 2.163497 0.89119347 0.03167402 0.45251624 1.000000
-0.661336 0.198928 2.157790 0.88833523 -0.05723901 0.45561412 1.000000
-0.651464 0.211883 2.141128 0.88176836 -0.12287005 0.45539819 1.000000
-0.654806 0.232894 2.154250 0.88410778 -0.09931098 0.45660789 1.000000
-0.653798 0.238868 2.152450 0.89266285 0.02288 0.45014392 1.000000
-0.645803 0.246978 2.135513 0.8801185 0.04491903 0.47262427 1.000000
-0.649801 0.260368 2.141586 0.86385905 0.056251 0.50058303 1.000000
-0.648763 0.265892 2.138534 0.82851997 0.17748899 0.53108598 1.000000
-0.646001 0.277709 2.130203 0.80675058 0.16495091 0.56740171 1.000000
-0.645421 0.282783 2.128310 0.81132102 0.066703 0.58078302 1.000000
-0.645467 0.290016 2.128005 0.82102193 0.015509 0.57068595 1.000000
-0.645086 0.296455 2.127456 0.81760312 0.00516 0.57575908 1.000000
-0.637044 0.336135 2.103835 0.87439372 0.05121298 0.48250684 1.000000
-0.634984 0.347122 2.098647 0.85929683 0.04084299 0.5098439 1.000000
-0.633535 0.354179 2.096053 0.83593825 -0.000604 0.54882317 1.000000
-0.632375 0.360786 2.094863 0.80671497 -0.053971 0.58847098 1.000000
-0.627843 0.384117 2.091903 0.84834894 -0.032696 0.52842696 1.000000
-0.626989 0.389282 2.090530 0.83441621 0.03581101 0.54997014 1.000000
-0.625387 0.411033 2.083389 0.83530993 0.15205099 0.52833495 1.000000
-0.624196 0.424301 2.077193 0.87394586 0.16779997 0.45613793 1.000000
-0.620687 0.439392 2.064224 0.8828959 0.15505498 0.44322995 1.000000
-0.619512 0.445076 2.059615 0.86689912 0.15943202 0.47230006 1.000000
-0.618169 0.451332 2.055282 0.86459799 0.105191 0.49133 1.000000
-0.611425 0.460144 2.043258 0.85866966 0.10201196 0.5022748 1.000000
-0.614034 0.479743 2.042464 0.84531583 0.09940498 0.5249379 1.000000
-0.605459 0.481231 2.029647 0.81792098 0.132319 0.55990799 1.000000
-0.613485 0.490982 2.038680 0.83302069 0.19182193 0.51892281 1.000000
-0.612707 0.496383 2.035598 0.84370505 0.19156101 0.50146403 1.000000
-0.606664 0.500190 2.024001 0.82029967 0.17226693 0.54537378 1.000000
-0.620473 0.511947 2.044723 0.85771588 0.13139198 0.49705093 1.000000
-0.610616 0.510910 2.028762 0.84958183 0.09882098 0.5181169 1.000000
0.267802 0.102828 -1.415299 -0.8634703 -0.49652918 0.08875703 3.000000
0.262538 0.108596 -1.436814 -0.88955029 -0.43814515 0.12934104 3.000000
0.265223 0.103134 -1.440049 -0.78174493 -0.61921395 0.07381699 3.000000
0.270671 0.102729 -1.392655 -0.89301049 -0.43207175 0.12588193 3.000000
0.265818 0.114082 -1.390153 -0.89114777 -0.44046289 0.10884897 3.000000
0.267726 0.129287 -1.162644 -0.93102921 -0.36320708 0.03557001 3.000000
-0.745626 -0.274033 2.224197 0.84412803 -0.27385901 0.46092202 1.000000
-0.747716 -0.281388 2.223861 0.84643179 -0.18971395 0.49755587 1.000000
-0.743551 -0.268372 2.224227 0.85068889 -0.32799896 0.41078595 1.000000
-0.740224 -0.256821 2.226730 0.85422908 -0.33492903 0.39763704 1.000000
-0.739370 -0.250199 2.231124 0.85026794 -0.33867497 0.40291897 1.000000
-0.738988 -0.243226 2.235549 0.86062211 -0.29450804 0.41544505 1.000000
-0.738439 -0.236115 2.238204 0.85049799 -0.208979 0.482681 1.000000
-0.737188 -0.229531 2.238509 0.85828674 -0.17781795 0.48137786 1.000000
-0.730749 -0.200623 2.235152 0.87571724 -0.07374602 0.47715913 1.000000
-0.729909 -0.195717 2.234206 0.89081674 -0.01780299 0.45401387 1.000000
-0.725377 -0.160256 2.224014 0.89157033 -0.05376802 0.44967917 1.000000
-0.722417 -0.145325 2.222884 0.83710375 -0.22957893 0.49653885 1.000000
-0.719182 -0.135422 2.218063 0.86692612 0.10194901 0.48789907 1.000000
-0.710576 -0.107262 2.204299 0.82220815 -0.024344 0.5686661 1.000000
-0.708059 -0.120591 2.200210 0.80263503 -0.061975 0.59324203 1.000000
-0.709737 -0.101151 2.203567 0.83289768 -0.08241697 0.54725579 1.000000
-0.708455 -0.089333 2.203902 0.83302257 -0.04581498 0.55133872 1.000000
-0.707631 -0.074784 2.203628 0.83627918 -0.07698702 0.54287212 1.000000
-0.701406 -0.056466 2.199874 0.82311596 -0.13338099 0.55198698 1.000000
-0.690313 -0.029923 2.190322 0.80600809 -0.05033901 0.58976007 1.000000
-0.694188 -0.021721 2.195937 0.80788409 -0.04788201 0.58739306 1.000000
-0.691823 -0.003373 2.194564 0.80371655 -0.08058096 0.58953067 1.000000
-0.686727 0.022140 2.191726 0.84521579 -0.16360796 0.50876587 1.000000
-0.685933 0.033569 2.194076 0.8538626 -0.15155093 0.49794677 1.000000
-0.685308 0.039817 2.194076 0.88582815 -0.06967801 0.45875208 1.000000
-0.680120 0.064682 2.187820 0.89372536 -0.05584402 0.44512518 1.000000
-0.678808 0.069984 2.185745 0.90139356 -0.03042099 0.43193079 1.000000
-0.676595 0.081550 2.181594 0.90230685 -0.025153 0.43035993 1.000000
-0.672704 0.104843 2.173812 0.87118122 -0.04576301 0.48882412 1.000000
-0.669668 0.117836 2.169936 0.87011069 -0.08366697 0.48570282 1.000000
-0.666540 0.135208 2.167983 0.87228577 -0.08751298 0.48110187 1.000000
-0.664922 0.146926 2.166152 0.88000023 -0.02157201 0.47448313 1.000000
-0.663274 0.159111 2.163436 0.87846298 0.008601 0.47773299 1.000000
-0.661123 0.169273 2.158798 0.88223757 0.06500097 0.46629577 1.000000
-0.649846 0.169998 2.138381 0.86077322 0.08491702 0.50185513 1.000000
-0.658086 0.188667 2.150802 0.87086366 0.02300899 0.49098581 1.000000
-0.656286 0.195259 2.147811 0.86389518 -0.03190501 0.50266011 1.000000
-0.654256 0.201499 2.145034 0.87915327 -0.004878 0.47651415 1.000000
-0.649969 0.223548 2.142104 0.86803481 -0.14283597 0.47551389 1.000000
-0.649541 0.230171 2.143111 0.88410672 -0.08473097 0.45953886 1.000000
-0.643575 0.233833 2.131789 0.89019198 -0.005616 0.45555099 1.000000
-0.639165 0.256393 2.124252 0.8585995 0.02849702 0.5118543 1.000000
-0.643484 0.264022 2.130935 0.84793685 0.08019599 0.52399591 1.000000
-0.641347 0.275314 2.124679 0.80819796 0.15296999 0.56869697 1.000000
-0.635564 0.284050 2.114547 0.8575279 0.12094199 0.50001894 1.000000
-0.628698 0.292655 2.097915 0.87902293 0.14163899 0.45525496 1.000000
-0.634328 0.321952 2.099838 0.8875352 0.11616203 0.4458561 1.000000
-0.630315 0.339111 2.092330 0.8376675 0.02473101 0.54562032 1.000000
-0.631353 0.333923 2.094344 0.86346944 -0.00244 0.50439526 1.000000
-0.624853 0.370750 2.085647 0.83465115 -0.02850001 0.5500411 1.000000
-0.611135 0.375930 2.063979 0.85495504 0.006286 0.51866402 1.000000
-0.620687 0.391929 2.080215 0.8650228 0.02506899 0.50110588 1.000000
-0.620077 0.397064 2.078201 0.86885638 0.12329905 0.47946421 1.000000
-0.620168 0.407966 2.075210 0.88547515 0.16336403 0.43502408 1.000000
-0.612157 0.416992 2.053787 0.8884737 0.15832395 0.43075285 1.000000
-0.610998 0.423263 2.049819 0.86485329 0.11746804 0.48808816 1.000000
-0.615209 0.437355 2.054549 0.85862249 0.12631893 0.49680071 1.000000
-0.612462 0.448303 2.046706 0.82064954 0.1523321 0.55075336 1.000000
-0.611913 0.454834 2.044479 0.845991 0.068049 0.528837 1.000000
-0.609914 0.466781 2.039840 0.82086218 0.12410603 0.55747912 1.000000
-0.606740 0.477012 2.032150 0.81523484 0.14426197 0.56087489 1.000000
-0.604970 0.486602 2.027450 0.79328879 0.14554696 0.59119284 1.000000
-0.603902 0.490722 2.025222 0.8031818 0.22887494 0.55001386 1.000000
-0.606115 0.508483 2.021468 0.77805195 0.17114299 0.60443796 1.000000
-0.604345 0.514717 2.017806 0.81170293 0.14757299 0.56511995 1.000000
-0.606603 0.525024 2.018600 0.83478919 0.13879803 0.53278712 1.000000
-0.602697 0.518775 2.014114 0.80586706 0.19623302 0.55863304 1.000000
-0.601064 0.524147 2.010391 0.81710335 0.17401007 0.54960223 1.000000
-0.592595 0.526779 1.997207 0.79257168 0.15689494 0.58924876 1.000000
-0.603353 0.536666 2.009353 0.80737075 0.19378794 0.55731383 1.000000
-0.591588 0.532577 1.994949 0.78621803 0.066339 0.61437802 1.000000
-0.601797 0.543266 2.006057 0.7803748 0.10457397 0.61650584 1.000000
-0.748845 -0.288834 2.223800 0.84269975 -0.13206496 0.52193484 1.000000
-0.742528 -0.286034 2.214309 0.81565774 -0.05793298 0.57562681 1.000000
-0.741292 -0.277939 2.214004 0.83709006 -0.16675401 0.52103103 1.000000
-0.739248 -0.271309 2.213668 0.84584325 -0.23275107 0.47997514 1.000000
-0.737234 -0.265549 2.213058 0.84815485 -0.26310595 0.45979192 1.000000
-0.735280 -0.259537 2.213302 0.85261688 -0.31144496 0.41957894 1.000000
-0.733907 -0.253586 2.215133 0.85366374 -0.3334809 0.40006088 1.000000
-0.730840 -0.233223 2.224899 0.86941917 -0.22950104 0.43753809 1.000000
-0.722295 -0.224457 2.212478 0.86367475 -0.23856293 0.44401987 1.000000
-0.721898 -0.217957 2.215286 0.83651783 -0.23411095 0.4954089 1.000000
-0.721227 -0.211640 2.216628 0.85015374 -0.13613696 0.50863085 1.000000
-0.724172 -0.198571 2.223068 0.86859202 -0.049722 0.49302701 1.000000
-0.715062 -0.188927 2.207534 0.85777868 -0.001868 0.51401581 1.000000
-0.719671 -0.175560 2.214614 0.85535398 0.056095 0.51499799 1.000000
-0.717306 -0.164910 2.209640 0.7906861 -0.06415501 0.60885107 1.000000
-0.716344 -0.146966 2.211868 0.78490789 -0.15168498 0.60075891 1.000000
-0.704900 -0.148102 2.198837 0.82446329 0.03934301 0.5645462 1.000000
-0.712911 -0.138260 2.207565 0.85587455 0.07933896 0.51106173 1.000000
-0.710973 -0.132767 2.203902 0.84134662 0.06604397 0.53644576 1.000000
-0.709356 -0.127053 2.201278 0.83844618 -0.008938 0.54491111 1.000000
-0.706853 -0.114609 2.199264 0.77925296 -0.017254 0.62647197 1.000000
-0.704397 -0.103676 2.196121 0.79507066 -0.04136298 0.60510474 1.000000
-0.703191 -0.085816 2.196059 0.82716021 -0.03322501 0.56098314 1.000000
-0.702428 -0.078194 2.194717 0.80384394 -0.06898999 0.59082595 1.000000
-0.700124 -0.069382 2.193679 0.8057161 -0.11417101 0.58119407 1.000000
-0.692647 -0.048119 2.188583 0.82929601 -0.171692 0.53178001 1.000000
-0.691015 -0.035576 2.190414 0.80943497 -0.18729199 0.55653998 1.000000
-0.687505 -0.011826 2.187637 0.82036153 -0.04179698 0.57031567 1.000000
-0.684026 0.007331 2.183395 0.83748763 -0.07257297 0.54161576 1.000000
-0.676458 0.016815 2.174392 0.83460998 -0.061093 0.54744299 1.000000
-0.681386 0.024902 2.183364 0.85674708 -0.11035401 0.50379205 1.000000
-0.666952 0.069564 2.158981 0.89183711 -0.07437201 0.44620105 1.000000
-0.668096 0.064140 2.160690 0.90527299 -0.028623 0.423865 1.000000
-0.670522 0.084121 2.169021 0.88358035 -0.05469702 0.46507419 1.000000
-0.665929 0.108787 2.162032 0.85999453 -0.06047897 0.50670672 1.000000
-0.659994 0.132118 2.155715 0.85149393 -0.08337299 0.51769396 1.000000
-0.658147 0.143562 2.154739 0.85602704 -0.062981 0.51308002 1.000000
-0.657613 0.149353 2.154159 0.84080418 -0.007805 0.54128312 1.000000
-0.656560 0.161170 2.151717 0.85130986 0.07147499 0.51977192 1.000000
-0.646276 0.183135 2.130904 0.85658393 0.045101 0.51403296 1.000000
-0.647634 0.202644 2.132003 0.88287108 -0.046896 0.46726804 1.000000
-0.646535 0.209205 2.131484 0.86006948 -0.12872507 0.49367028 1.000000
-0.645543 0.221214 2.133834 0.87016387 -0.11493498 0.47917093 1.000000
-0.641027 0.244781 2.127364 0.85573708 -0.021379 0.51696905 1.000000
-0.638189 0.261962 2.122268 0.86480992 0.051435 0.49945795 1.000000
-0.636388 0.273117 2.117721 0.85359385 0.08108499 0.51458991 1.000000
-0.626272 0.304801 2.089767 0.88091266 0.14133795 0.45168183 1.000000
-0.628789 0.318893 2.090102 0.86547133 0.08790203 0.49318619 1.000000
-0.627553 0.326026 2.087539 0.8483312 -0.000928 0.52946512 1.000000
-0.623113 0.343605 2.081771 0.82575634 -0.02437101 0.56350023 1.000000
-0.621114 0.349128 2.079543 0.81947287 -0.04100899 0.57164891 1.000000
-0.619573 0.359901 2.078048 0.83661042 -0.03098602 0.54692127 1.000000
-0.612829 0.363006 2.067153 0.85575394 -0.021932 0.51691796 1.000000
-0.615728 0.384223 2.071670 0.88277102 0.065883 0.46516101 1.000000
-0.614736 0.394447 2.068191 0.88784252 0.09695406 0.44981726 1.000000
-0.614034 0.404541 2.063796 0.89131982 0.14779797 0.42860791 1.000000
-0.613546 0.410987 2.059341 0.88080826 0.20883906 0.42492712 1.000000
-0.610265 0.429107 2.047622 0.82776832 0.08552603 0.55451321 1.000000
-0.609716 0.435264 2.046127 0.80979209 0.11136401 0.57605106 1.000000
-0.606801 0.451675 2.037612 0.81355185 0.13373497 0.56590489 1.000000
-0.602163 0.470321 2.027633 0.80694713 0.10945402 0.58039309 1.000000
-0.598913 0.484817 2.020644 0.77225605 0.17028501 0.61206504 1.000000
-0.596776 0.493804 2.015273 0.7576969 0.20334497 0.62011792 1.000000
-0.593023 0.506660 2.005630 0.77728952 0.22449586 0.58772664 1.000000
-0.592824 0.512275 2.002395 0.80300831 0.23650709 0.54703021 1.000000
-0.593831 0.520896 1.999984 0.79927415 0.19118704 0.56974411 1.000000
-0.734792 -0.282280 2.203994 0.792078 -0.049248 0.60843 1.000000
-0.733404 -0.276070 2.202712 0.8107446 -0.12225094 0.57249271 1.000000
-0.731756 -0.269501 2.201797 0.81234129 -0.19291807 0.5503492 1.000000
-0.730398 -0.262520 2.202804 0.79437311 -0.22348403 0.56482408 1.000000
-0.728719 -0.256249 2.203475 0.81982599 -0.28892 0.49437899 1.000000
-0.725713 -0.243775 2.206466 0.84685369 -0.31214388 0.43058684 1.000000
-0.723043 -0.230858 2.209945 0.85987912 -0.28445404 0.42390306 1.000000
-0.719900 -0.206116 2.215530 0.83898581 -0.04857499 0.54198088 1.000000
-0.718160 -0.200776 2.212905 0.8503228 0.006456 0.52622187 1.000000
-0.716466 -0.195641 2.209853 0.8605482 -0.007058 0.50932012 1.000000
-0.713781 -0.183251 2.206008 0.82441528 -0.02120001 0.56558819 1.000000
-0.711065 -0.171814 2.202712 0.77049805 -0.021666 0.63707404 1.000000
-0.706731 -0.158890 2.200301 0.7091399 -0.13963298 0.69110291 1.000000
-0.705785 -0.153679 2.200088 0.76126032 -0.03641202 0.64742327 1.000000
-0.703252 -0.137368 2.193160 0.80992569 0.12439395 0.57318978 1.000000
-0.702718 -0.130997 2.191451 0.78930407 -0.038408 0.61280006 1.000000
-0.694799 -0.107171 2.184676 0.79332665 -0.01649399 0.60857273 1.000000
-0.697729 -0.093888 2.188400 0.78552668 -0.01705399 0.61859275 1.000000
-0.689519 -0.082993 2.178298 0.79000675 -0.05627698 0.61050981 1.000000
-0.691198 -0.061638 2.182815 0.82517844 -0.11486906 0.55306929 1.000000
-0.687383 -0.050560 2.178848 0.83497483 -0.15420997 0.52823889 1.000000
-0.685003 -0.032555 2.182540 0.82098484 -0.08186198 0.56505089 1.000000
-0.678472 0.003875 2.175277 0.80726883 -0.03060399 0.58938988 1.000000
-0.675664 -0.010117 2.171462 0.8091101 -0.027991 0.58699007 1.000000
-0.675649 0.021812 2.173354 0.87238906 -0.010516 0.48869903 1.000000
-0.674810 0.027305 2.171676 0.87665641 -0.04200002 0.47928023 1.000000
-0.672902 0.045799 2.169753 0.89333579 -0.04266499 0.44735989 1.000000
-0.657232 0.097023 2.145889 0.87832412 -0.06657701 0.47340706 1.000000
-0.647344 0.113861 2.132797 0.84336588 -0.08728599 0.53020293 1.000000
-0.653219 0.135368 2.145766 0.83636281 -0.11365397 0.53626488 1.000000
-0.651693 0.147048 2.145736 0.83635573 -0.08103997 0.54216383 1.000000
-0.651067 0.152900 2.144759 0.82679379 0.04459199 0.56073486 1.000000
-0.650625 0.158134 2.143325 0.83392274 0.13876896 0.53414983 1.000000
-0.642949 0.193679 2.123855 0.87527942 0.04150502 0.48183323 1.000000
-0.642049 0.199249 2.122146 0.85489732 -0.03143201 0.51784419 1.000000
-0.635152 0.208755 2.111587 0.86427741 -0.10127805 0.49271423 1.000000
-0.638646 0.231307 2.122237 0.87290613 -0.05494801 0.48478407 1.000000
-0.629659 0.245628 2.109115 0.84396504 0.048731 0.53418003 1.000000
-0.626775 0.262542 2.102157 0.84569373 0.07496698 0.52837683 1.000000
-0.631002 0.276245 2.108169 0.86665546 0.09396605 0.48997826 1.000000
-0.624761 0.278862 2.096053 0.86240476 0.16669595 0.47798587 1.000000
-0.623296 0.315879 2.081802 0.82778686 0.08444699 0.5546509 1.000000
-0.622182 0.322570 2.079208 0.83712794 -0.004927 0.54698496 1.000000
-0.617422 0.341728 2.073013 0.86778603 -0.025758 0.49627002 1.000000
-0.614141 0.351783 2.068343 0.86937595 -0.043329 0.49224797 1.000000
-0.602758 0.351997 2.047530 0.85723316 -0.07048101 0.51008209 1.000000
-0.609533 0.385543 2.059951 0.8757239 0.12709799 0.46578295 1.000000
-0.607198 0.408714 2.047958 0.8790049 0.15604398 0.45055595 1.000000
-0.605520 0.415031 2.043288 0.83027804 0.103384 0.54767703 1.000000
-0.603673 0.426162 2.038711 0.80560106 0.07141001 0.58813905 1.000000
-0.597036 0.435623 2.028976 0.8025707 0.08026397 0.59113278 1.000000
-0.596090 0.440910 2.026412 0.80728313 0.16983503 0.56519909 1.000000
-0.593679 0.453376 2.018661 0.81227308 0.15974102 0.56097705 1.000000
-0.597951 0.462379 2.022994 0.81327488 0.09666699 0.57379392 1.000000
-0.594900 0.478614 2.016586 0.80332579 0.09313698 0.58821185 1.000000
-0.594213 0.483963 2.014602 0.8132051 0.14137302 0.56454507 1.000000
-0.589315 0.500152 2.003341 0.81479901 0.167557 0.55500201 1.000000
-0.588872 0.505546 2.000015 0.81465091 0.22206698 0.53575194 1.000000
-0.587804 0.511001 1.996200 0.77626896 0.21066099 0.59416197 1.000000
-0.586461 0.523513 1.989883 0.78818773 0.17249894 0.59076579 1.000000
-0.580663 0.527023 1.981216 0.80287062 0.13738193 0.58010772 1.000000
-0.585042 0.542701 1.986312 0.82354036 0.03207301 0.56635025 1.000000
-0.590215 0.544532 1.992477 0.77154217 0.04261701 0.63474914 1.000000
