-0.043321 -0.792703 0.908880 0.85282298 -0.064808 0.51816299 1.000000
-0.034242 -0.780727 0.894476 0.84891592 0.05965099 0.52515095 1.000000
-0.029436 -0.774606 0.885656 0.85201784 0.017388 0.5232239 1.000000
-0.024858 -0.768779 0.879034 0.82784011 -0.09947901 0.55207307 1.000000
-0.020692 -0.763198 0.875066 0.81137529 -0.21917608 0.5418782 1.000000
-0.016710 -0.757686 0.871801 0.815171 -0.206683 0.54109 1.000000
-0.012392 -0.751951 0.866430 0.87471994 -0.13266499 0.46611697 1.000000
-0.007493 -0.745821 0.857763 0.89299721 -0.06986702 0.4446061 1.000000
-0.002504 -0.739586 0.848272 0.8938969 -0.06192399 0.44397495 1.000000
0.002272 -0.733450 0.840063 0.87204136 -0.08784004 0.4814852 1.000000
0.006697 -0.727632 0.833929 0.82925716 -0.12509402 0.54468711 1.000000
0.015028 -0.716386 0.824804 0.84045863 -0.14931093 0.52089877 1.000000
0.019576 -0.710497 0.818426 0.87782334 -0.08122003 0.47204818 1.000000
0.024382 -0.704349 0.809911 0.88802819 -0.05409201 0.4565961 1.000000
0.029204 -0.698177 0.800848 0.88866281 -0.09175398 0.4492879 1.000000
0.033736 -0.692264 0.793676 0.85915407 -0.18876002 0.47563004 1.000000
0.037764 -0.686748 0.789648 0.81122124 -0.29247008 0.50634115 1.000000
0.045821 -0.675819 0.783422 0.86775678 -0.18773795 0.46016588 1.000000
0.050642 -0.669675 0.775671 0.8974782 -0.08914002 0.4319571 1.000000
0.055556 -0.663370 0.765844 0.89232515 -0.05218901 0.44836607 1.000000
0.073958 -0.639766 0.739996 0.84646606 -0.08515501 0.52558904 1.000000
0.076079 -0.648124 0.735326 0.84731205 -0.084643 0.52430703 1.000000
0.078124 -0.633909 0.733434 0.87860849 -0.02367199 0.47695572 1.000000
0.087340 -0.621685 0.715826 0.88744477 -0.009705 0.46081188 1.000000
0.091948 -0.615675 0.708135 0.85215179 -0.09309698 0.51494687 1.000000
0.095961 -0.610077 0.703619 0.80552507 -0.18046402 0.56441305 1.000000
0.212477 -0.460888 0.522680 0.86232465 -0.005131 0.5063298 1.000000
0.216719 -0.455127 0.516485 0.81417327 -0.07729403 0.57545419 1.000000
0.224730 -0.443721 0.507391 0.81812013 -0.08452001 0.56880209 1.000000
0.229765 -0.437776 0.500463 0.86514133 -0.06847803 0.49683119 1.000000
0.243895 -0.419988 0.478033 0.86844921 -0.11406503 0.48247812 1.000000
0.248152 -0.414169 0.472204 0.87528921 -0.17211204 0.45193611 1.000000
0.252486 -0.408350 0.465856 0.88564944 -0.18385309 0.42640721 1.000000
0.257079 -0.402473 0.458318 0.89380829 -0.15439505 0.42103314 1.000000
0.261748 -0.396164 0.450018 0.89505336 -0.10851504 0.43255517 1.000000
0.266325 -0.390066 0.442144 0.86861376 -0.08177698 0.48869486 1.000000
0.270491 -0.384531 0.436376 0.80381765 -0.12870094 0.58078675 1.000000
0.279387 -0.373104 0.427801 0.80299413 -0.14608802 0.57780509 1.000000
0.284285 -0.367262 0.421697 0.84593769 -0.10536196 0.52276981 1.000000
0.295912 -0.363674 0.402807 0.86497003 -0.080609 0.49530702 1.000000
-0.032548 -0.789030 0.891332 0.86260437 -0.06288603 0.50195522 1.000000
-0.040117 -0.809211 0.900610 0.85702002 -0.088001 0.50771301 1.000000
-0.028078 -0.783041 0.883733 0.87660963 -0.01381699 0.4810038 1.000000
-0.023317 -0.777000 0.875066 0.88398098 -0.039076 0.46588699 1.000000
-0.018556 -0.771099 0.867620 0.86461228 -0.21014507 0.45638215 1.000000
-0.014116 -0.765310 0.862341 0.86331863 -0.27524788 0.42298882 1.000000
-0.009889 -0.759611 0.857641 0.87151451 -0.27247185 0.40770277 1.000000
-0.005464 -0.753767 0.851171 0.88748186 -0.20405097 0.41320594 1.000000
-0.000719 -0.747686 0.842901 0.88974414 -0.11643302 0.44136007 1.000000
0.008528 -0.735803 0.828619 0.84956191 -0.14586198 0.50692095 1.000000
0.021819 -0.718433 0.811590 0.88265907 -0.11027601 0.45689404 1.000000
0.026549 -0.712320 0.803594 0.89310025 -0.07927202 0.44281812 1.000000
0.031355 -0.706113 0.794561 0.89544787 -0.07642599 0.43855693 1.000000
0.035872 -0.700075 0.786718 0.87463379 -0.12291197 0.46894389 1.000000
0.039946 -0.694469 0.781774 0.81621498 -0.25883 0.51652699 1.000000
0.047759 -0.683590 0.775732 0.82800199 -0.263562 0.49492199 1.000000
0.052611 -0.677795 0.769079 0.88252072 -0.14473595 0.44744686 1.000000
0.057753 -0.671396 0.760076 0.88595239 -0.09044894 0.45487069 1.000000
0.062300 -0.665374 0.752843 0.86241043 -0.08441104 0.49912225 1.000000
0.066695 -0.659736 0.747198 0.82715795 -0.10932999 0.55123197 1.000000
0.073363 -0.662098 0.737127 0.83467608 -0.09285501 0.54285705 1.000000
0.094206 -0.623762 0.702428 0.87039217 -0.08627602 0.48474109 1.000000
0.098708 -0.618044 0.696508 0.82596184 -0.21064696 0.5228909 1.000000
0.106551 -0.607044 0.689672 0.83353005 -0.20637801 0.51248003 1.000000
0.111601 -0.601051 0.682409 0.87363808 -0.11559101 0.47264704 1.000000
0.118575 -0.602974 0.668279 0.8993088 -0.08032498 0.42987391 1.000000
0.208632 -0.475629 0.529272 0.87506328 -0.09782203 0.47402015 1.000000
0.213347 -0.469621 0.521764 0.84692112 -0.015483 0.53149308 1.000000
0.218062 -0.463678 0.514318 0.8219088 -0.00557 0.56959186 1.000000
0.228301 -0.460523 0.500433 0.81213904 -0.061393 0.58022503 1.000000
0.230391 -0.446346 0.498602 0.83591206 -0.033794 0.54782204 1.000000
0.235472 -0.440168 0.490453 0.86996191 -0.012039 0.49297195 1.000000
0.245879 -0.428152 0.472509 0.88186139 -0.07199903 0.46597921 1.000000
0.250945 -0.421989 0.463567 0.89196447 -0.13239007 0.43228723 1.000000
0.256056 -0.415802 0.454687 0.89150314 -0.15819102 0.42449706 1.000000
0.260420 -0.409904 0.447790 0.878469 -0.180927 0.442219 1.000000
0.264388 -0.404047 0.442754 0.86431967 -0.15402994 0.47877582 1.000000
0.268248 -0.398182 0.437658 0.83956026 -0.10608503 0.53280816 1.000000
0.272154 -0.392585 0.433019 0.77407487 -0.08483099 0.62738489 1.000000
0.281065 -0.381374 0.424078 0.77209413 -0.07251801 0.63135711 1.000000
0.285811 -0.375463 0.418127 0.82903607 -0.042601 0.55757004 1.000000
0.290907 -0.369554 0.410467 0.85294873 -0.03779199 0.52062484 1.000000
0.300597 -0.357732 0.395422 0.87971685 -0.06955699 0.47038292 1.000000
0.300475 -0.338579 0.397985 0.87852608 -0.05761601 0.47420704 1.000000
-0.024217 -0.799574 0.875738 0.87553643 -0.02524301 0.48249223 1.000000
-0.015275 -0.787443 0.859411 0.88286367 0.003291 0.46961783 1.000000
-0.011247 -0.772722 0.851080 0.89434821 -0.09175002 0.4378621 1.000000
-0.006654 -0.766653 0.843938 0.87262063 -0.23884817 0.42601031 1.000000
-0.002626 -0.761121 0.839788 0.85277908 -0.27849003 0.44182704 1.000000
0.001296 -0.755603 0.835973 0.85125819 -0.21113305 0.4803981 1.000000
0.005583 -0.749883 0.830663 0.84703103 -0.095248 0.52294002 1.000000
0.023787 -0.726482 0.805669 0.84727652 -0.09682795 0.52225171 1.000000
0.028471 -0.720470 0.798437 0.86176377 -0.006521 0.50726786 1.000000
0.037703 -0.708278 0.782262 0.8679171 -0.006537 0.49666606 1.000000
0.042006 -0.702434 0.775671 0.83983475 -0.11523597 0.53046985 1.000000
0.052184 -0.699300 0.761388 0.82312015 -0.19525903 0.5332421 1.000000
0.049910 -0.691423 0.768377 0.8221132 -0.23400506 0.51901013 1.000000
0.054289 -0.685779 0.763342 0.85712813 -0.16888903 0.48662908 1.000000
0.059432 -0.679687 0.755224 0.86961225 -0.10466903 0.48251314 1.000000
0.064284 -0.673660 0.748144 0.82778958 -0.09935195 0.55217172 1.000000
0.082411 -0.650339 0.724035 0.86773109 -0.07740901 0.49096905 1.000000
0.086745 -0.644285 0.716741 0.88582804 -0.013124 0.46382802 1.000000
0.096282 -0.631862 0.697942 0.88235454 0.004222 0.47056629 1.000000
0.101302 -0.625866 0.689550 0.85123469 -0.08238697 0.51827781 1.000000
0.105589 -0.620294 0.684301 0.8363936 -0.2193389 0.50233076 1.000000
0.109404 -0.614818 0.680883 0.83215316 -0.25484905 0.49251709 1.000000
0.113631 -0.609119 0.676122 0.86920313 -0.17658503 0.46184807 1.000000
0.127776 -0.590582 0.650396 0.90725511 -0.09239201 0.41030705 1.000000
0.210402 -0.483789 0.523840 0.85167488 -0.13028798 0.50761693 1.000000
0.214644 -0.477987 0.518835 0.82930116 -0.10237502 0.5493441 1.000000
0.225264 -0.474901 0.503759 0.83561898 -0.063619 0.54561299 1.000000
0.223799 -0.466335 0.506323 0.8220893 -0.04225802 0.56778821 1.000000
0.232161 -0.454910 0.495672 0.83536498 -0.059839 0.54642899 1.000000
0.236266 -0.449024 0.489538 0.86145838 -0.005034 0.50780323 1.000000
0.241362 -0.442670 0.480108 0.88885018 0.008282 0.45812309 1.000000
0.247069 -0.436412 0.469152 0.89400676 -0.05193899 0.44503288 1.000000
0.258040 -0.423841 0.448034 0.88888689 -0.08253399 0.45063094 1.000000
0.262877 -0.417780 0.440313 0.86053912 -0.13716202 0.49057007 1.000000
0.266951 -0.412162 0.435735 0.82800813 -0.17180703 0.53374608 1.000000
0.270552 -0.406417 0.432470 0.79105336 -0.14745807 0.59370927 1.000000
0.274077 -0.400930 0.429418 0.73182498 -0.126257 0.66969498 1.000000
0.282134 -0.389909 0.422491 0.73538518 -0.04778901 0.67596216 1.000000
0.287047 -0.383846 0.416509 0.80666899 0.024727 0.590486 1.000000
0.291838 -0.377996 0.408788 0.85488636 0.001054 0.51881422 1.000000
0.301878 -0.366155 0.392431 0.86590415 -0.023954 0.49963608 1.000000
0.315245 -0.348123 0.369299 0.87591898 -0.049044 0.47995899 1.000000
-0.029100 -0.805791 0.883367 0.86258671 -0.06117598 0.50219683 1.000000
-0.010072 -0.781150 0.848791 0.86638386 0.08049799 0.49284792 1.000000
-0.004686 -0.774772 0.838354 0.85454768 0.03718899 0.51803981 1.000000
-0.000261 -0.768787 0.832128 0.81409206 -0.13195801 0.56554504 1.000000
0.003462 -0.763401 0.829076 0.75508279 -0.18410495 0.62924983 1.000000
0.007277 -0.757993 0.826269 0.78169122 -0.12751704 0.61049017 1.000000
0.011519 -0.752370 0.821569 0.79770116 -0.023054 0.60261212 1.000000
0.015990 -0.746576 0.815588 0.82780468 -0.03761799 0.55975378 1.000000
0.029692 -0.729002 0.796514 0.83132787 -0.024863 0.55522591 1.000000
0.040160 -0.725555 0.780340 0.85517428 0.02545501 0.51771517 1.000000
0.043425 -0.710836 0.773229 0.85518496 0.021879 0.51786098 1.000000
0.047911 -0.704933 0.766302 0.84348699 -0.080178 0.53113199 1.000000
0.059020 -0.701439 0.749456 0.84806743 -0.18326609 0.49718725 1.000000
0.061003 -0.687923 0.750829 0.85449799 -0.147017 0.498216 1.000000
0.065749 -0.682022 0.744299 0.82762295 -0.13421699 0.54500097 1.000000
0.075957 -0.679046 0.730901 0.83594904 -0.14739301 0.52864402 1.000000
0.074782 -0.670658 0.734014 0.84148371 -0.07613797 0.53489081 1.000000
0.079527 -0.664661 0.726446 0.88182027 -0.10182603 0.46046114 1.000000
0.084044 -0.658697 0.719152 0.88020883 -0.15898697 0.44716391 1.000000
0.088332 -0.652860 0.712713 0.87679042 -0.10569905 0.46911222 1.000000
0.093016 -0.646541 0.705083 0.8758117 0.000315 0.48265284 1.000000
0.102797 -0.634107 0.686803 0.86317189 0.023523 0.50436193 1.000000
0.115996 -0.616909 0.668218 0.86293871 -0.14360995 0.48447184 1.000000
0.120665 -0.610984 0.661474 0.88692594 -0.11970599 0.44613097 1.000000
0.131743 -0.606716 0.639654 0.90044489 -0.037887 0.43331695 1.000000
0.130141 -0.598405 0.643285 0.90828518 -0.05051901 0.41529008 1.000000
0.134764 -0.592233 0.634252 0.88924896 -0.111679 0.44358098 1.000000
0.220397 -0.480657 0.509985 0.82637725 -0.13980904 0.54548517 1.000000
0.234618 -0.463073 0.490392 0.85265601 -0.091394 0.51441701 1.000000
0.238600 -0.457241 0.484899 0.86772042 -0.07251703 0.49173424 1.000000
0.243071 -0.451126 0.477117 0.89595356 -0.004315 0.44412678 1.000000
0.254103 -0.438055 0.453893 0.90019702 -0.034827 0.43408801 1.000000
0.263442 -0.426431 0.437841 0.84661042 -0.08218504 0.52582926 1.000000
0.267897 -0.420524 0.432531 0.7924803 -0.12249205 0.59747023 1.000000
0.283156 -0.398803 0.420782 0.71461595 -0.11078899 0.69068795 1.000000
0.287901 -0.392864 0.416082 0.79978206 -0.011409 0.60018205 1.000000
0.292616 -0.386621 0.408453 0.86185563 0.02893199 0.50632778 1.000000
0.297560 -0.380529 0.399236 0.88689102 -0.040466 0.46020301 1.000000
0.307204 -0.368583 0.382787 0.88231028 -0.06903302 0.46557815 1.000000
0.315642 -0.356811 0.368047 0.8825214 -0.06899003 0.46518421 1.000000
0.320799 -0.350526 0.359106 0.86857773 -0.07103098 0.49043585 1.000000
0.331954 -0.347007 0.340490 0.84877803 -0.14869401 0.50741102 1.000000
-0.013566 -0.795768 0.856512 0.85815106 -0.001124 0.51339604 1.000000
-0.017915 -0.801830 0.864111 0.87666972 -0.02677899 0.48034685 1.000000
-0.009187 -0.789882 0.849310 0.84868401 0.073758 0.523732 1.000000
-0.003343 -0.792556 0.840795 0.83508627 0.07239102 0.54533518 1.000000
0.001067 -0.777359 0.830480 0.79224975 0.09575597 0.60263681 1.000000
0.005171 -0.771696 0.825933 0.66715061 -0.06573796 0.74201657 1.000000
0.008772 -0.766422 0.823949 0.62233275 -0.05716398 0.78066269 1.000000
0.012740 -0.760984 0.820684 0.71262271 0.03841898 0.70049472 1.000000
0.017439 -0.755022 0.813879 0.80720425 0.09012603 0.58335118 1.000000
0.022124 -0.749012 0.806310 0.84013881 -0.001304 0.54236988 1.000000
0.026534 -0.743257 0.800024 0.83642496 -0.067581 0.54389897 1.000000
0.035475 -0.731622 0.787939 0.84001608 -0.049047 0.54034005 1.000000
0.044844 -0.719389 0.771551 0.88398186 -0.014153 0.46730693 1.000000
0.049651 -0.713260 0.762701 0.86833025 -0.03624801 0.49466014 1.000000
0.054411 -0.707311 0.755376 0.85531915 -0.12887502 0.50181709 1.000000
0.067503 -0.690097 0.739202 0.83469209 -0.19109102 0.51650105 1.000000
0.081282 -0.672737 0.721685 0.91582546 -0.08918995 0.39154677 1.000000
0.086394 -0.666294 0.710790 0.9095517 -0.19506294 0.36696888 1.000000
0.090605 -0.660522 0.704504 0.87580512 -0.26478203 0.40355405 1.000000
0.094664 -0.654899 0.699712 0.862711 -0.226559 0.452107 1.000000
0.099303 -0.648967 0.692999 0.8717899 -0.09342999 0.48088794 1.000000
0.104292 -0.642658 0.684759 0.86809721 -0.007261 0.49634112 1.000000
0.109007 -0.636602 0.676794 0.85337077 -0.02597599 0.52065686 1.000000
0.117461 -0.625055 0.663824 0.85844891 -0.07301099 0.50767595 1.000000
0.133208 -0.615146 0.636327 0.88785805 -0.063612 0.45569902 1.000000
0.136611 -0.600458 0.629522 0.88788212 -0.037587 0.45853306 1.000000
0.141036 -0.594520 0.622930 0.82644659 -0.15186492 0.54214673 1.000000
0.222060 -0.488784 0.504919 0.83732546 -0.1528299 0.52490866 1.000000
0.226790 -0.483032 0.499151 0.85492659 -0.15926092 0.49369676 1.000000
0.231841 -0.477203 0.492345 0.86798167 -0.12748395 0.47995382 1.000000
0.245604 -0.459339 0.471349 0.88081613 -0.09066701 0.46469607 1.000000
0.250746 -0.452678 0.461034 0.89808957 0.01455199 0.43957179 1.000000
0.256224 -0.446172 0.449041 0.89926657 0.006427 0.43735379 1.000000
0.260268 -0.440055 0.441442 0.87987024 -0.05112301 0.47245613 1.000000
0.265440 -0.442703 0.432287 0.85699381 -0.07703098 0.50953689 1.000000
0.268004 -0.429056 0.430914 0.80744806 -0.12044701 0.57751204 1.000000
0.271986 -0.423389 0.426977 0.75078925 -0.15249005 0.64269922 1.000000
0.280089 -0.412664 0.420721 0.73372192 -0.18324598 0.65427293 1.000000
0.284331 -0.407322 0.417730 0.7624201 -0.21890303 0.60893108 1.000000
0.288725 -0.401743 0.413976 0.82038293 -0.15029299 0.55170995 1.000000
0.293654 -0.395616 0.406988 0.88457001 -0.059815 0.46255601 1.000000
0.298918 -0.389043 0.396307 0.90795773 -0.04297999 0.41685187 1.000000
0.304213 -0.382780 0.385290 0.90821338 -0.07542203 0.41165517 1.000000
0.308959 -0.376575 0.376440 0.89879577 -0.14109296 0.41504089 1.000000
0.317153 -0.364847 0.363287 0.88401475 -0.14021096 0.44593587 1.000000
0.327208 -0.352714 0.347082 0.8714389 -0.09781099 0.48065295 1.000000
0.341109 -0.335199 0.329259 0.86896142 -0.11554006 0.48120323 1.000000
-0.011903 -0.804247 0.853521 0.83865692 -0.021666 0.54422895 1.000000
0.001708 -0.786428 0.832098 0.80752025 0.11288904 0.57893618 1.000000
0.006484 -0.780370 0.824712 0.75034274 -0.008149 0.66099877 1.000000
0.010314 -0.774934 0.821813 0.64375013 -0.13598603 0.75305615 1.000000
0.013945 -0.769722 0.820257 0.67028807 -0.08708101 0.73697408 1.000000
0.018294 -0.764028 0.815527 0.80711312 0.07920301 0.58506008 1.000000
0.023497 -0.757682 0.805364 0.86203611 0.07244301 0.50164306 1.000000
0.028227 -0.751524 0.796484 0.85709059 -0.03670098 0.51385675 1.000000
0.037047 -0.739919 0.784032 0.85587525 -0.09123103 0.50907215 1.000000
0.041686 -0.733944 0.776952 0.87855019 -0.07411402 0.4718651 1.000000
0.046538 -0.727787 0.768194 0.89106423 -0.03257001 0.45270712 1.000000
0.056593 -0.715385 0.749456 0.87438747 -0.07539404 0.47933526 1.000000
0.061553 -0.709396 0.742223 0.8567648 -0.13390397 0.49801988 1.000000
0.065901 -0.703508 0.736456 0.847764 -0.172943 0.501385 1.000000
0.069792 -0.697969 0.732275 0.81615895 -0.21638699 0.53578097 1.000000
0.077528 -0.687116 0.725744 0.85303993 -0.16732999 0.49429096 1.000000
0.083266 -0.680872 0.715185 0.92427557 -0.04145898 0.37946782 1.000000
0.090224 -0.673177 0.695989 0.9267068 -0.09580698 0.36336692 1.000000
0.094573 -0.667457 0.689306 0.85631093 -0.29388198 0.42469397 1.000000
0.097685 -0.662386 0.688421 0.79359093 -0.35460197 0.49443996 1.000000
0.101195 -0.657058 0.686620 0.80301117 -0.25319205 0.53950611 1.000000
0.105711 -0.651294 0.681249 0.84857886 -0.10248498 0.51904792 1.000000
0.110747 -0.644992 0.673498 0.86802285 -0.019277 0.49614991 1.000000
0.115309 -0.638918 0.665777 0.87435581 -0.06464899 0.4809599 1.000000
0.128447 -0.621320 0.644598 0.87766286 -0.08066899 0.47244092 1.000000
0.137694 -0.608892 0.627477 0.89123189 -0.02062 0.45307895 1.000000
0.142317 -0.602968 0.619054 0.85096611 -0.08748601 0.51788307 1.000000
0.146666 -0.597509 0.614660 0.76046231 -0.2390811 0.60376925 1.000000
0.150588 -0.592142 0.612798 0.73910701 -0.269931 0.61713701 1.000000
0.154814 -0.586527 0.609899 0.81471213 -0.16105003 0.55705209 1.000000
0.229002 -0.490814 0.492467 0.85794813 -0.12586202 0.49808007 1.000000
0.236296 -0.492775 0.479009 0.85722178 -0.10129197 0.50488687 1.000000
0.238585 -0.479173 0.478857 0.86647907 -0.13969001 0.47927104 1.000000
0.247527 -0.467355 0.465582 0.87114073 -0.11341596 0.47775585 1.000000
0.252257 -0.461355 0.458044 0.88587995 -0.006503 0.46386897 1.000000
0.262145 -0.448337 0.437749 0.8865558 0.019983 0.46218989 1.000000
0.268797 -0.437297 0.428014 0.84138287 -0.14360898 0.52100992 1.000000
0.272734 -0.431669 0.423620 0.82563804 -0.19800801 0.52831303 1.000000
0.276686 -0.426021 0.420110 0.80471503 -0.24774101 0.53949802 1.000000
0.284728 -0.415100 0.413519 0.80966889 -0.29383296 0.50803393 1.000000
0.289519 -0.409700 0.409093 0.83760271 -0.2798959 0.46912684 1.000000
0.295073 -0.403881 0.401708 0.88986035 -0.18684707 0.41621716 1.000000
0.300719 -0.397440 0.390783 0.91657602 -0.10694 0.38529501 1.000000
0.311263 -0.384426 0.368291 0.91152513 -0.10156601 0.39850506 1.000000
0.315810 -0.378267 0.360448 0.88949478 -0.14765396 0.43243189 1.000000
0.320021 -0.372541 0.354162 0.85675523 -0.15066004 0.49322613 1.000000
0.324736 -0.366712 0.347875 0.85976895 -0.12249299 0.49577497 1.000000
0.334944 -0.354566 0.333074 0.85906796 -0.12388699 0.49664298 1.000000
0.342970 -0.343143 0.323278 0.84987102 -0.153118 0.50425601 1.000000
0.347151 -0.337423 0.317419 0.87319848 -0.09814794 0.47737972 1.000000
0.002730 -0.795084 0.831426 0.85364598 -0.05916 0.51748299 1.000000
0.007628 -0.789079 0.823614 0.84064288 -0.030079 0.54075392 1.000000
0.012053 -0.783266 0.817846 0.79737688 -0.17501997 0.57754491 1.000000
0.015776 -0.777938 0.815740 0.76346185 -0.26769095 0.58776488 1.000000
0.019652 -0.772522 0.813116 0.84277884 -0.17858197 0.5077719 1.000000
0.024535 -0.766481 0.805242 0.90324108 -0.06467401 0.42423204 1.000000
0.029921 -0.759866 0.793279 0.89890432 -0.01838301 0.43775916 1.000000
0.034468 -0.753845 0.785375 0.87666176 -0.09342597 0.47194887 1.000000
0.038863 -0.748008 0.778875 0.88742388 -0.16818698 0.42917594 1.000000
0.043547 -0.742059 0.771368 0.88372684 -0.12105098 0.45207692 1.000000
0.048323 -0.736000 0.763403 0.88893961 -0.09103796 0.4488858 1.000000
0.053252 -0.729869 0.754430 0.88934442 -0.03376902 0.45598921 1.000000
0.058302 -0.723766 0.745275 0.87812255 -0.05013903 0.4758013 1.000000
0.063262 -0.717773 0.737585 0.85614521 -0.08730202 0.50930712 1.000000
0.067976 -0.711900 0.730993 0.84367683 -0.11133498 0.5251799 1.000000
0.071990 -0.705906 0.725988 0.8316751 -0.15739102 0.53248906 1.000000
0.079665 -0.694986 0.718664 0.83961191 -0.20923498 0.50127095 1.000000
0.084563 -0.689115 0.711462 0.90751895 -0.042188 0.41788698 1.000000
0.091673 -0.681577 0.692724 0.91544776 0.05722198 0.3983479 1.000000
0.097075 -0.675192 0.681341 0.85038126 -0.07052502 0.52141916 1.000000
0.100050 -0.670154 0.680578 0.63340968 -0.33924583 0.69548864 1.000000
0.103072 -0.664938 0.680822 0.67250225 -0.28959211 0.68108526 1.000000
0.106703 -0.659645 0.678777 0.76254864 -0.08080396 0.6418647 1.000000
0.111556 -0.653804 0.672155 0.83193059 0.04998498 0.55262373 1.000000
0.116850 -0.647371 0.662847 0.87125381 0.06088499 0.4870419 1.000000
0.132079 -0.637472 0.635076 0.87685626 -0.008687 0.48067414 1.000000
0.136580 -0.631441 0.627233 0.88248119 -0.06592901 0.4657041 1.000000
0.134734 -0.623426 0.632269 0.89049959 -0.05659197 0.45145079 1.000000
0.143889 -0.611162 0.615484 0.88184903 -0.063988 0.46717002 1.000000
0.148528 -0.605446 0.609075 0.81219016 -0.19480304 0.54990811 1.000000
0.153136 -0.600208 0.605535 0.77287611 -0.29246304 0.56314108 1.000000
0.157576 -0.594600 0.602361 0.81772774 -0.25111892 0.51793883 1.000000
0.162337 -0.588459 0.596380 0.88073203 -0.115088 0.45941902 1.000000
0.167479 -0.581960 0.586004 0.90669429 -0.002108 0.42178314 1.000000
0.249434 -0.475368 0.460821 0.84681102 -0.087027 0.52472601 1.000000
0.253661 -0.469547 0.454839 0.8511071 -0.026337 0.52433106 1.000000
0.258650 -0.463184 0.446386 0.87575986 0.05359299 0.47976292 1.000000
0.263731 -0.456754 0.435522 0.89122208 0.06953101 0.44820604 1.000000
0.267851 -0.450622 0.426885 0.88735674 -0.02313299 0.46050286 1.000000
0.271178 -0.445108 0.421758 0.86962737 -0.11692905 0.47966221 1.000000
0.274825 -0.439638 0.417242 0.8485167 -0.20668593 0.48713483 1.000000
0.282912 -0.428342 0.408453 0.83994914 -0.24208504 0.48567508 1.000000
0.286955 -0.422729 0.404455 0.83846505 -0.28701502 0.46324803 1.000000
0.291594 -0.417160 0.399633 0.85629216 -0.28973705 0.42757008 1.000000
0.297301 -0.411422 0.392156 0.87950609 -0.26458803 0.39555304 1.000000
0.302763 -0.405115 0.382330 0.90874547 -0.17262609 0.3799762 1.000000
0.307738 -0.398887 0.372808 0.91207067 -0.12302496 0.39114186 1.000000
0.312575 -0.392599 0.363653 0.89141654 -0.09368895 0.44339477 1.000000
0.317320 -0.386407 0.355627 0.87139006 -0.09194901 0.48189703 1.000000
0.321730 -0.380407 0.349340 0.82309311 -0.08845101 0.56097607 1.000000
0.331740 -0.368595 0.336919 0.82215512 -0.022159 0.56883208 1.000000
0.337142 -0.362346 0.328405 0.84563886 -0.00265 0.53374891 1.000000
0.341582 -0.356870 0.321600 0.84451812 -0.09428301 0.52716208 1.000000
0.348921 -0.345298 0.312597 0.84930738 -0.10172805 0.51800423 1.000000
0.352858 -0.339546 0.306676 0.87190506 -0.068231 0.48489803 1.000000
0.357344 -0.333749 0.299322 0.86585805 -0.09637101 0.49092003 1.000000
0.434844 -0.231479 0.170782 0.83139384 -0.06229399 0.55218089 1.000000
0.309538 0.523672 0.376623 0.81112658 0.02135399 0.5844807 1.000000
0.305525 0.518345 0.383367 0.85648175 0.08769797 0.50867285 1.000000
0.300551 0.511803 0.393926 0.88086983 0.08754898 0.46519191 1.000000
0.289824 0.498919 0.413732 0.86050181 -0.07812198 0.50342189 1.000000
0.281157 0.487473 0.425970 0.85807232 -0.07250803 0.50838419 1.000000
0.276961 0.481964 0.433111 0.8843392 0.017678 0.4665101 1.000000
0.267500 0.469540 0.453802 0.89297933 -0.004698 0.45007316 1.000000
0.261870 0.462611 0.463140 0.85999192 -0.051078 0.50774495 1.000000
0.257475 0.456986 0.469030 0.85005712 -0.025864 0.52605508 1.000000
0.253371 0.451395 0.476415 0.87636122 0.10198703 0.47073312 1.000000
0.248763 0.444949 0.488653 0.88720406 0.18344301 0.42334103 1.000000
0.243437 0.437773 0.503423 0.87581555 0.18102191 0.44741277 1.000000
-0.005891 -0.806696 0.843237 0.8563949 -0.12675398 0.50052094 1.000000
0.009169 -0.797371 0.819830 0.87045386 -0.11957898 0.47750492 1.000000
0.014021 -0.791328 0.812170 0.86604586 -0.12476898 0.48414592 1.000000
0.018355 -0.785600 0.806738 0.84376771 -0.23445892 0.48278884 1.000000
0.022337 -0.780105 0.803167 0.85313286 -0.27851795 0.44112593 1.000000
0.026808 -0.774320 0.797277 0.89210277 -0.19891595 0.40569089 1.000000
0.034270 -0.775777 0.779180 0.90398078 -0.12701497 0.4082719 1.000000
0.036986 -0.761598 0.777502 0.90073809 -0.13103001 0.41412804 1.000000
0.237700 0.431050 0.516027 0.85023569 0.04513298 0.52446381 1.000000
0.055037 -0.737960 0.749303 0.88302787 -0.17724797 0.43456293 1.000000
0.059660 -0.732071 0.742132 0.88034367 -0.08274297 0.46706383 1.000000
0.064406 -0.726139 0.734502 0.86636892 -0.08882399 0.49144195 1.000000
0.069090 -0.720260 0.727666 0.85757094 -0.13892999 0.49524796 1.000000
0.077590 -0.708547 0.716711 0.84380175 -0.16339795 0.51117485 1.000000
0.081526 -0.702972 0.712194 0.84079437 -0.20454609 0.50122422 1.000000
0.086119 -0.697160 0.706213 0.87890398 -0.150021 0.45279299 1.000000
0.091628 -0.690794 0.695928 0.89853723 0.06103202 0.43463311 1.000000
0.097533 -0.683933 0.682226 0.84961079 0.11189897 0.51540287 1.000000
0.101744 -0.678255 0.676550 0.64270109 -0.16085002 0.74904111 1.000000
0.107787 -0.668081 0.676672 0.60323112 -0.23438105 0.76235015 1.000000
0.111907 -0.662557 0.673193 0.77626811 0.002931 0.63039609 1.000000
0.118056 -0.665159 0.664526 0.87848811 0.019744 0.47735606 1.000000
0.127745 -0.643390 0.642736 0.87609199 0.004809 0.48212 1.000000
0.225401 0.427031 0.534002 0.82848192 -0.07850499 0.55448595 1.000000
0.227568 0.418768 0.529363 0.79983805 -0.14171501 0.58324604 1.000000
0.150221 -0.613477 0.603643 0.83434837 -0.18275708 0.52006023 1.000000
0.154967 -0.608175 0.598669 0.80344496 -0.25329399 0.53881198 1.000000
0.161574 -0.610479 0.587255 0.82996714 -0.24087904 0.50312209 1.000000
0.164809 -0.596510 0.588689 0.86030346 -0.19452588 0.4712087 1.000000
0.169341 -0.590372 0.581609 0.89114821 -0.06139601 0.4495391 1.000000
0.173811 -0.584055 0.573064 0.88448315 0.022359 0.46603608 1.000000
0.255187 -0.477823 0.452398 0.81077594 -0.004143 0.58534196 1.000000
0.259596 -0.471861 0.445837 0.84790632 0.05915702 0.5268352 1.000000
0.264662 -0.465471 0.435735 0.87707113 0.10246001 0.46930607 1.000000
0.274321 -0.452684 0.414068 0.88149735 -0.05111502 0.46941419 1.000000
0.278334 -0.447080 0.407781 0.85028513 -0.16799603 0.49879108 1.000000
0.291197 -0.430086 0.392400 0.8460996 -0.19911991 0.49443577 1.000000
0.295653 -0.424352 0.386907 0.85644413 -0.20204303 0.47506007 1.000000
0.300627 -0.418434 0.380285 0.87354934 -0.16715506 0.45713318 1.000000
0.305800 -0.412052 0.372015 0.88982179 -0.16324596 0.4261079 1.000000
0.309905 -0.406276 0.365240 0.89327248 -0.13223307 0.42962623 1.000000
0.313811 -0.400737 0.359319 0.8792297 -0.12456796 0.45982384 1.000000
0.318221 -0.394836 0.352819 0.85502515 -0.10326002 0.50820209 1.000000
0.322661 -0.388956 0.346899 0.80560489 -0.09263699 0.58516592 1.000000
0.327162 -0.383150 0.341863 0.77381876 -0.08326197 0.6279108 1.000000
0.332655 -0.377540 0.336095 0.78742471 -0.03027799 0.61566677 1.000000
0.339430 -0.380056 0.326574 0.85344824 0.004142 0.52116115 1.000000
0.342665 -0.365099 0.319646 0.85434416 0.01422 0.51951309 1.000000
0.352446 -0.362011 0.304052 0.84615118 -0.07926702 0.52701511 1.000000
0.356734 -0.356037 0.298009 0.87029723 -0.06042602 0.48880613 1.000000
0.368361 -0.330419 0.281347 0.85672189 -0.14333898 0.49546094 1.000000
0.363951 -0.321352 0.291814 0.85407707 -0.14143201 0.50054904 1.000000
0.217009 0.407122 0.537817 0.6816972 -0.3249281 0.65552319 1.000000
0.378584 -0.318836 0.265874 0.90740083 -0.07859399 0.41285192 1.000000
0.390212 -0.313764 0.240545 0.91424129 -0.06220802 0.40036613 1.000000
0.212584 0.402403 0.538885 0.53839104 -0.43758603 0.72017606 2.000000
0.208708 0.397698 0.538519 0.37055008 -0.4711851 0.80042317 2.000000
0.205077 0.392836 0.537145 0.2582049 -0.53277679 0.80590268 2.000000
0.201491 0.388329 0.534948 0.17333306 -0.5845152 0.79265227 2.000000
0.197966 0.384030 0.532049 0.18859807 -0.62166224 0.76024129 2.000000
0.191191 0.372099 0.496404 -0.47098901 -0.87972701 0.06519 2.000000
0.196043 0.375325 0.387670 -0.34390778 -0.92019542 0.18699688 2.000000
0.193861 0.371930 0.373968 -0.32459797 -0.9238999 0.20259598 2.000000
0.192564 0.369530 0.352300 -0.37787605 -0.92075313 0.09707401 2.000000
0.191771 0.367642 0.326330 -0.36166003 -0.92786408 0.09094101 2.000000
0.190550 0.365343 0.303838 -0.42330782 -0.90129061 0.09211796 2.000000
0.187163 0.359070 0.235693 -0.31264093 -0.9386708 0.14543997 2.000000
0.185606 0.356732 0.216222 -0.325549 -0.92923301 0.174768 2.000000
0.179640 0.347075 0.174078 -0.37061607 -0.92258718 0.10712902 2.000000
0.178862 0.345248 0.147466 -0.36210605 -0.92684312 0.09920201 2.000000
0.177458 0.342617 0.124822 -0.34710091 -0.91563877 0.20279695 2.000000
0.175047 0.339026 0.112585 -0.41407295 -0.88014888 0.23212397 2.000000
0.173628 0.336520 0.093176 -0.39767404 -0.9156461 0.05871601 2.000000
0.174193 0.335947 0.053808 -0.32312001 -0.94598203 0.026673 2.000000
0.173293 0.334114 0.027868 -0.18870901 -0.97406103 0.124876 2.000000
0.169219 0.328375 -0.002467 -0.23140999 -0.95681497 0.17593899 2.000000
0.167632 0.325709 -0.019984 -0.38485999 -0.90029098 0.20336899 2.000000
0.165770 0.322760 -0.036280 -0.4202229 -0.8764758 0.23495295 2.000000
0.163939 0.319416 -0.052241 -0.34535703 -0.91815609 0.19421102 2.000000
0.162291 0.316138 -0.072657 -0.32917116 -0.92823844 0.17326208 2.000000
0.160567 0.312870 -0.091608 -0.32776911 -0.90132431 0.2831641 2.000000
0.020705 -0.793356 0.798864 0.86950201 -0.139322 0.47387301 1.000000
0.011031 -0.805412 0.813879 0.87879739 -0.13522606 0.4576342 1.000000
0.025038 -0.787588 0.792974 0.86292992 -0.21347698 0.45801696 1.000000
0.029463 -0.781808 0.787054 0.8806642 -0.17728804 0.4393171 1.000000
0.039198 -0.769609 0.770513 0.88279198 -0.078493 0.46315999 1.000000
0.053099 -0.751413 0.746954 0.88541438 -0.13563206 0.44457319 1.000000
0.061614 -0.739950 0.735479 0.89096463 -0.19989292 0.40770683 1.000000
0.070555 -0.728271 0.722448 0.87963779 -0.22952895 0.4165979 1.000000
0.083678 -0.710758 0.704565 0.8715817 -0.22204292 0.43708385 1.000000
0.092818 -0.699201 0.692114 0.87402822 -0.20238305 0.44171911 1.000000
0.097777 -0.692999 0.684057 0.87461272 -0.02959899 0.48391785 1.000000
0.102446 -0.686878 0.676122 0.80142152 -0.003338 0.59809064 1.000000
0.106322 -0.681358 0.672125 0.7055049 -0.19354797 0.6817639 1.000000
0.109526 -0.676227 0.671819 0.66249606 -0.33850003 0.66821906 1.000000
0.158003 0.308949 -0.102442 -0.26544196 -0.85361588 0.44819694 2.000000
0.113158 -0.670967 0.670660 0.78102983 -0.21645595 0.58578087 1.000000
0.129286 -0.651943 0.640295 0.88166325 0.04678501 0.46955413 1.000000
0.138548 -0.639644 0.623174 0.8820732 -0.000504 0.47111211 1.000000
0.148177 -0.627222 0.604986 0.886315 -0.039126 0.461427 1.000000
0.152373 -0.621332 0.597845 0.85181547 -0.12174107 0.50949928 1.000000
0.168242 -0.612449 0.575719 0.83662719 -0.18634304 0.51510312 1.000000
0.171294 -0.598644 0.575964 0.85575298 -0.198407 0.47782999 1.000000
0.175505 -0.592432 0.569799 0.87606021 -0.08284902 0.47503111 1.000000
0.179579 -0.586486 0.563024 0.86744408 -0.030368 0.49660704 1.000000
0.183516 -0.580795 0.556738 0.84109736 -0.06489803 0.53697623 1.000000
0.155180 0.304848 -0.110560 -0.33850594 -0.89924683 0.27707195 2.000000
0.153700 0.302134 -0.131007 -0.41483284 -0.90822365 0.05516798 2.000000
0.260970 -0.480522 0.444616 0.8455181 0.022439 0.53347506 1.000000
0.265608 -0.474376 0.436193 0.88225683 0.06818799 0.46580391 1.000000
0.270903 -0.467731 0.423956 0.896101 0.104826 0.431294 1.000000
0.276274 -0.460975 0.410650 0.89290768 0.07507897 0.44393584 1.000000
0.281096 -0.454813 0.401159 0.87465395 -0.013849 0.48454997 1.000000
0.285597 -0.449215 0.395086 0.83173095 -0.12398699 0.54115696 1.000000
0.154189 0.301667 -0.168421 -0.45001101 -0.89187702 0.045227 2.000000
0.294478 -0.437898 0.384924 0.82955636 -0.14576006 0.53906423 1.000000
0.303542 -0.426288 0.373785 0.82971218 -0.08357002 0.55190012 1.000000
0.308516 -0.419613 0.366399 0.86113331 -0.02238401 0.50788618 1.000000
0.312819 -0.413629 0.358343 0.87186567 -0.02052499 0.48931481 1.000000
0.316359 -0.408249 0.352636 0.86375872 -0.09283197 0.49528084 1.000000
0.319945 -0.402876 0.347997 0.83842586 -0.12636998 0.53016291 1.000000
0.324126 -0.397194 0.343206 0.79615204 -0.15174301 0.58576103 1.000000
0.333495 -0.386142 0.334081 0.79005713 -0.13292702 0.5984481 1.000000
0.348311 -0.367618 0.310125 0.86977502 -0.012426 0.49329201 1.000000
0.152937 0.299324 -0.190577 -0.50671116 -0.84970626 0.14575004 2.000000
0.376906 -0.340101 0.263708 0.86937694 -0.11348799 0.48094097 1.000000
0.378783 -0.348308 0.258367 0.87915266 -0.07002797 0.47136682 1.000000
0.379790 -0.326831 0.261358 0.88705989 -0.10554699 0.44942695 1.000000
0.146117 0.300040 -0.207484 -0.51594087 -0.85271878 0.08170498 2.000000
0.151122 0.295336 -0.240412 -0.53829716 -0.84052726 0.06123802 2.000000
0.394408 -0.307319 0.231268 0.90905366 -0.012389 0.41649484 1.000000
0.398528 -0.301241 0.223272 0.89102573 -0.06958498 0.44858787 1.000000
0.402754 -0.295421 0.216405 0.86965725 -0.13946104 0.47354714 1.000000
0.149886 0.292984 -0.261774 -0.48658007 -0.85580612 0.17560102 2.000000
0.147704 0.289793 -0.273768 -0.38703906 -0.88401814 0.26213104 3.000000
0.146025 0.287018 -0.288203 -0.43431595 -0.86819191 0.24002597 3.000000
0.143904 0.283678 -0.302973 -0.4078689 -0.84462179 0.34678091 3.000000
0.141081 0.279482 -0.313197 -0.39544499 -0.77318597 0.49578898 3.000000
0.130003 0.274449 -0.329707 -0.52311307 -0.7180261 0.45912006 3.000000
0.132338 0.266863 -0.339228 -0.61816364 -0.77930255 0.10276794 3.000000
0.132018 0.265536 -0.369593 -0.62088882 -0.78343778 0.02687599 3.000000
0.127165 0.268380 -0.404047 -0.62309736 -0.78083146 0.04529803 3.000000
0.131087 0.262492 -0.427332 -0.63591099 -0.76969998 0.056384 3.000000
0.130980 0.261343 -0.459315 -0.58386481 -0.81150373 -0.02373999 3.000000
0.133864 0.263493 -0.517939 -0.58705795 -0.80822794 -0.046158 3.000000
0.135420 0.264170 -0.564692 -0.64128918 -0.76726721 -0.007015 3.000000
0.130599 0.267050 -0.599421 -0.65431933 -0.75464138 0.04881202 3.000000
0.134490 0.261120 -0.622401 -0.66145702 -0.74508802 0.085548 3.000000
0.133666 0.259243 -0.648371 -0.69189418 -0.72189518 0.012239 3.000000
0.136977 0.260815 -0.743616 -0.54697726 -0.8370334 -0.01381901 3.000000
0.137038 0.259854 -0.777064 -0.62513078 -0.78002072 0.02791399 3.000000
0.136885 0.258700 -0.808863 -0.63427619 -0.77308623 -0.005603 3.000000
0.138533 0.259474 -0.856440 -0.66673014 -0.74456916 -0.03298001 3.000000
0.026900 -0.795684 0.787634 0.85738524 -0.07762202 0.50878814 1.000000
0.017577 -0.807621 0.801519 0.86286088 -0.09687999 0.49606993 1.000000
0.139769 0.259795 -0.900263 -0.70028711 -0.71374011 0.013154 3.000000
0.031355 -0.789829 0.781225 0.86538824 -0.10985503 0.48891213 1.000000
0.040816 -0.777868 0.766454 0.86652781 -0.06591799 0.49475689 1.000000
0.050108 -0.765876 0.751714 0.86378559 -0.01260899 0.50370176 1.000000
0.059447 -0.753648 0.735418 0.87363448 -0.004243 0.48656427 1.000000
0.064009 -0.747633 0.727361 0.89856733 -0.08485203 0.43055416 1.000000
0.080565 -0.736982 0.692876 0.88793441 -0.2147241 0.40677519 1.000000
0.084670 -0.731351 0.688085 0.8614082 -0.28272906 0.4219481 1.000000
0.081877 -0.724126 0.700231 0.87443199 -0.277362 0.39804399 1.000000
0.086104 -0.718345 0.694708 0.87377125 -0.25748107 0.41258612 1.000000
0.090468 -0.712566 0.688818 0.86398301 -0.259814 0.431312 1.000000
0.094954 -0.706899 0.683447 0.85160502 -0.25939701 0.45550201 1.000000
0.099318 -0.701259 0.678899 0.8344848 -0.20155195 0.51284688 1.000000
0.103484 -0.695444 0.674413 0.82163295 -0.08125399 0.56419596 1.000000
0.107665 -0.689716 0.668920 0.80471323 -0.07332402 0.58911817 1.000000
0.111754 -0.684122 0.664526 0.78832119 -0.20508305 0.58007814 1.000000
0.115660 -0.678749 0.662206 0.79638098 -0.31057499 0.51896099 1.000000
0.120024 -0.673250 0.658453 0.86617904 -0.19627701 0.45957502 1.000000
0.132292 -0.668945 0.634527 0.89249374 -0.08660297 0.44266787 1.000000
0.130797 -0.660350 0.638189 0.8911621 -0.005947 0.45364605 1.000000
0.141585 -0.656566 0.617742 0.88328116 0.001218 0.46884209 1.000000
0.138930 0.257895 -0.926020 -0.69428441 -0.71701742 0.06209004 3.000000
0.150130 -0.635572 0.601446 0.88269708 -0.009317 0.46985004 1.000000
0.154540 -0.629465 0.593725 0.85593796 -0.022195 0.51660197 1.000000
0.158736 -0.623670 0.587286 0.83414106 -0.046482 0.54958904 1.000000
0.174376 -0.614521 0.564886 0.84225385 -0.12329598 0.52479191 1.000000
0.138823 0.256777 -0.958186 -0.5863627 -0.81004059 0.00361 3.000000
0.172896 -0.606830 0.570043 0.85110892 -0.16497598 0.49839395 1.000000
0.177413 -0.600872 0.564306 0.86717211 -0.13902402 0.47821006 1.000000
0.139891 0.256878 -1.000330 -0.655837 -0.754565 -0.022572 3.000000
0.141203 0.257319 -1.045069 -0.76154181 -0.64753384 -0.02745899 3.000000
0.144179 0.251419 -1.027064 -0.84569981 -0.53252788 -0.03472599 3.000000
0.190169 -0.583063 0.544653 0.85607368 -0.17286793 0.48708782 1.000000
0.142195 0.257403 -1.086939 -0.61085303 -0.79173703 0.003324 3.000000
0.142241 0.256445 -1.120417 -0.53808514 -0.84229422 0.03169901 3.000000
0.141814 0.254965 -1.149653 -0.56472204 -0.82402805 0.045462 3.000000
0.262587 -0.489044 0.441961 0.85519044 -0.03032102 0.51742627 1.000000
0.267409 -0.482742 0.433080 0.89409279 0.005668 0.4478459 1.000000
0.272475 -0.476276 0.422063 0.90394751 0.04972397 0.42474277 1.000000
0.277770 -0.469570 0.409582 0.89487081 0.07677798 0.4396719 1.000000
0.282881 -0.463182 0.398534 0.8643413 0.05587402 0.49979217 1.000000
0.287642 -0.457309 0.391027 0.8172478 -0.04073599 0.57484486 1.000000
0.296431 -0.446211 0.380621 0.80880494 -0.08413099 0.58202796 1.000000
0.314894 -0.432031 0.356695 0.8300633 -0.05002202 0.5554212 1.000000
0.314803 -0.422250 0.356634 0.84912664 0.04144498 0.52656078 1.000000
0.319273 -0.416381 0.347875 0.85111502 0.05059 0.52253601 1.000000
0.322768 -0.410791 0.342077 0.83676873 -0.04660099 0.54556983 1.000000
0.326720 -0.405382 0.337560 0.80083867 -0.13345694 0.58382076 1.000000
0.141585 0.253687 -1.180506 -0.55886977 -0.82691966 0.06219697 3.000000
0.340621 -0.388801 0.323492 0.85538295 -0.048719 0.51569997 1.000000
0.140593 0.251633 -1.205012 -0.46002008 -0.87961215 0.12109502 3.000000
0.350432 -0.375658 0.306066 0.87408713 -0.003954 0.48575307 1.000000
0.354781 -0.369959 0.298559 0.86462105 -0.074449 0.49687803 1.000000
0.381117 -0.334600 0.257177 0.89714165 -0.09330396 0.43177683 1.000000
0.386412 -0.328451 0.246801 0.91367382 -0.06707799 0.40087492 1.000000
0.398528 -0.323675 0.219213 0.90658142 -0.08072704 0.41423819 1.000000
0.395689 -0.315811 0.227239 0.89933325 -0.07638102 0.43054112 1.000000
0.399977 -0.309425 0.219183 0.90482981 -0.05540699 0.42215291 1.000000
0.418898 -0.286111 0.190832 0.82963882 -0.18836396 0.52556489 1.000000
0.423094 -0.280607 0.186315 0.81453771 -0.14885395 0.5606878 1.000000
0.139494 0.248419 -1.261378 -0.53297874 -0.84602959 -0.01294599 3.000000
0.141661 0.249777 -1.313593 -0.59241178 -0.8051917 -0.02673199 3.000000
0.141982 0.249087 -1.349299 -0.695402 -0.71838 0.018607 3.000000
0.141783 0.246848 -1.413569 -0.77812577 -0.62509682 0.06143498 3.000000
0.140776 0.244748 -1.437708 -0.76214181 -0.64270684 0.07789598 3.000000
-0.239961 -0.188347 1.339544 0.80431392 -0.10726399 0.58444294 1.000000
-0.243898 -0.193681 1.345434 0.86268876 0.09347397 0.49702186 1.000000
0.032866 -0.798170 0.777776 0.85901489 -0.06285899 0.50807693 1.000000
0.028410 -0.803987 0.784246 0.84695896 -0.061365 0.52810497 1.000000
0.042189 -0.786274 0.763311 0.86101482 -0.07428198 0.50312589 1.000000
0.051375 -0.774391 0.749609 0.8599433 -0.05660302 0.50724118 1.000000
0.056044 -0.768383 0.741979 0.88109639 -0.05664503 0.46953221 1.000000
0.060927 -0.762182 0.733129 0.88764787 -0.023459 0.45992493 1.000000
0.065779 -0.755819 0.723577 0.90194104 -0.005432 0.43182502 1.000000
0.075911 -0.743003 0.701086 0.90598438 -0.03915702 0.42149618 1.000000
0.088576 -0.725807 0.684423 0.85131034 -0.27718011 0.44546818 1.000000
0.092619 -0.720197 0.680242 0.84293841 -0.26026513 0.47086823 1.000000
0.096877 -0.714634 0.675939 0.81151396 -0.26603899 0.52025797 1.000000
0.101149 -0.709230 0.672613 0.76379412 -0.25750404 0.59187009 1.000000
0.105132 -0.703760 0.669927 0.76879945 -0.18055211 0.61347236 1.000000
0.109038 -0.698158 0.666479 0.78768995 -0.071498 0.61190896 1.000000
0.113387 -0.692346 0.660497 0.8247556 -0.03987498 0.56408172 1.000000
0.118010 -0.686525 0.654058 0.84332287 -0.15203898 0.51545192 1.000000
0.122572 -0.680919 0.648870 0.8523205 -0.23759786 0.46593672 1.000000
0.127364 -0.675127 0.642583 0.877934 -0.182376 0.442686 1.000000
0.157805 -0.646438 0.587408 0.85204993 -0.043054 0.52168695 1.000000
0.153090 -0.652471 0.595129 0.88482773 -0.04024599 0.46417686 1.000000
0.160628 -0.632066 0.584417 0.82345326 -0.03043601 0.56656718 1.000000
0.169798 -0.620268 0.571386 0.83307708 -0.011563 0.55303605 1.000000
0.184371 -0.611282 0.548681 0.86034106 -0.13956701 0.49023903 1.000000
0.183287 -0.603212 0.552709 0.8700922 -0.12131503 0.47772611 1.000000
0.196547 -0.585376 0.532201 0.86618384 -0.10226398 0.48914991 1.000000
0.264357 -0.497503 0.437902 0.84804032 -0.13488405 0.5124782 1.000000
0.279891 -0.477855 0.406194 0.89802418 0.02895701 0.43899209 1.000000
0.284514 -0.471641 0.397009 0.86867376 0.05934698 0.49181687 1.000000
0.289122 -0.465711 0.389074 0.8304183 0.04710902 0.5551452 1.000000
0.293669 -0.460035 0.382787 0.81291488 -0.06261299 0.57900692 1.000000
0.310164 -0.437738 0.362829 0.81651665 -0.08850996 0.57049676 1.000000
0.320555 -0.425501 0.347173 0.86517114 0.02302 0.50094808 1.000000
0.325285 -0.419115 0.338110 0.85653833 0.02708501 0.5153722 1.000000
0.329253 -0.413614 0.332494 0.80810313 -0.08614301 0.58270809 1.000000
0.337462 -0.402187 0.324102 0.7929865 -0.14425491 0.59191463 1.000000
0.342131 -0.396679 0.319006 0.81492132 -0.12930505 0.56496322 1.000000
0.347289 -0.390812 0.312139 0.85352207 -0.050466 0.51860704 1.000000
0.352049 -0.384227 0.303899 0.86722202 0.023915 0.49734701 1.000000
0.356490 -0.378135 0.295324 0.86535224 5.7e-05 0.50116414 1.000000
0.361083 -0.372278 0.287542 0.85819331 -0.02295401 0.51281318 1.000000
0.369826 -0.360452 0.273962 0.86419234 -0.04847402 0.5008212 1.000000
0.374190 -0.354540 0.266302 0.88046328 -0.02422301 0.47349515 1.000000
0.383299 -0.342281 0.250799 0.89927924 -0.10963903 0.42341011 1.000000
0.388121 -0.336256 0.241430 0.91286445 -0.07883904 0.4005782 1.000000
0.393691 -0.329723 0.229131 0.91418578 -0.05763899 0.4011759 1.000000
0.410643 -0.319170 0.196752 0.8677682 -0.018835 0.49661211 1.000000
0.407591 -0.310901 0.203222 0.89174211 -0.05068101 0.44969706 1.000000
0.412383 -0.304878 0.194891 0.87674218 -0.10645202 0.4690321 1.000000
0.416884 -0.299192 0.188543 0.8528328 -0.17280896 0.49276088 1.000000
0.421080 -0.293968 0.184209 0.81405147 -0.21364012 0.54007231 1.000000
0.425093 -0.288679 0.180883 0.78441151 -0.19639113 0.58832738 1.000000
0.434874 -0.285749 0.168859 0.81735889 -0.13310598 0.56054192 1.000000
-0.489381 -0.513515 1.755041 0.87497543 -0.03342402 0.48301224 1.000000
-0.494051 -0.519596 1.762609 0.85285634 -0.06294102 0.51833821 1.000000
-0.499376 -0.525747 1.769903 0.83629195 -0.10187899 0.53873597 1.000000
-0.508180 -0.537178 1.781255 0.84463276 -0.13126896 0.51900285 1.000000
-0.513994 -0.534746 1.792516 0.89127016 -0.07234901 0.44766408 1.000000
-0.522661 -0.555917 1.808294 0.88767387 -0.13881098 0.43905194 1.000000
-0.531480 -0.567239 1.818487 0.86184517 -0.15143303 0.4840361 1.000000
-0.540605 -0.579113 1.833135 0.87922002 -0.132858 0.45751601 1.000000
0.043746 -0.794498 0.758947 0.86996652 -0.12669993 0.47655574 1.000000
0.048430 -0.788580 0.752081 0.87732373 -0.12678696 0.46284786 1.000000
0.053084 -0.782581 0.744726 0.88893472 -0.12297096 0.44121786 1.000000
0.062621 -0.770485 0.728338 0.8963428 -0.11665397 0.42773991 1.000000
0.074339 -0.765949 0.704778 0.89379081 -0.04961799 0.44573091 1.000000
0.072432 -0.757757 0.709295 0.90201128 0.007681 0.43164413 1.000000
0.078825 -0.759851 0.696386 0.89107237 0.01591301 0.45358219 1.000000
0.082152 -0.745216 0.689031 0.87900229 -0.000603 0.47681716 1.000000
0.086638 -0.739292 0.681768 0.85507904 -0.110023 0.50669002 1.000000
0.090758 -0.733610 0.676733 0.83362682 -0.21413095 0.50913089 1.000000
0.094710 -0.728050 0.672857 0.82088625 -0.25001708 0.51345616 1.000000
0.098631 -0.722570 0.669744 0.77558112 -0.29478804 0.55818808 1.000000
0.102599 -0.717210 0.667455 0.72818916 -0.30100807 0.61573914 1.000000
0.106535 -0.711914 0.665685 0.7104469 -0.28414196 0.64383891 1.000000
0.110381 -0.706535 0.663580 0.7487701 -0.18224602 0.63728308 1.000000
0.114531 -0.700941 0.659185 0.82034081 -0.03508199 0.57079787 1.000000
0.119383 -0.694896 0.651342 0.85951574 -0.008241 0.51104284 1.000000
0.124388 -0.688877 0.643072 0.86574093 -0.08476599 0.49326196 1.000000
0.129103 -0.682996 0.636327 0.86701764 -0.15339394 0.4740788 1.000000
0.133696 -0.677141 0.629736 0.87967659 -0.16063292 0.44762279 1.000000
0.138258 -0.671169 0.622808 0.88795337 -0.09864604 0.44923019 1.000000
0.142897 -0.665046 0.614660 0.89421589 -0.05184099 0.44462395 1.000000
-0.544771 -0.584930 1.838689 0.86555581 -0.15259797 0.4769979 1.000000
0.163435 -0.649109 0.578680 0.81583527 -0.06421302 0.57470819 1.000000
0.166747 -0.634815 0.575719 0.815834 -0.040131 0.576892 1.000000
0.172926 -0.637241 0.566595 0.84969767 -0.010935 0.5271568 1.000000
0.175810 -0.622776 0.561742 0.86038855 -0.00862 0.50956573 1.000000
0.180113 -0.616991 0.554876 0.86370766 -0.07118397 0.4989408 1.000000
0.188979 -0.605478 0.541906 0.8655439 -0.12682599 0.48450895 1.000000
0.207686 -0.590248 0.513158 0.86002593 -0.10333599 0.49967696 1.000000
0.206923 -0.582056 0.515875 0.85974331 -0.11151104 0.49840418 1.000000
0.265639 -0.505872 0.432958 0.82052177 -0.18554995 0.54066185 1.000000
0.271010 -0.499607 0.425970 0.88549731 0.001119 0.46464316 1.000000
0.281401 -0.486440 0.403905 0.87443515 0.08026801 0.47845608 1.000000
0.285826 -0.480230 0.395666 0.85464124 0.05711402 0.51606815 1.000000
0.294936 -0.468555 0.380926 0.83143201 0.006009 0.55559401 1.000000
0.299208 -0.462877 0.374761 0.84337108 -0.07381701 0.53223705 1.000000
0.307234 -0.451564 0.364355 0.83826996 -0.13472499 0.52834898 1.000000
0.315459 -0.440296 0.354467 0.84734096 -0.13663399 0.51317098 1.000000
0.320433 -0.434435 0.347326 0.86627875 -0.05274298 0.49676886 1.000000
0.326064 -0.428003 0.337408 0.8664748 0.008764 0.49914388 1.000000
0.330794 -0.421962 0.329473 0.83215605 -0.04356 0.55282803 1.000000
0.339980 -0.419214 0.317205 0.80822604 -0.12698401 0.57501803 1.000000
0.348326 -0.399194 0.309393 0.84260691 -0.07982599 0.53257995 1.000000
0.353285 -0.393070 0.301824 0.87094552 -0.02131001 0.49091729 1.000000
0.357695 -0.386787 0.293829 0.87330979 -0.006867 0.48711688 1.000000
0.372496 -0.377283 0.268743 0.86136709 -0.03097 0.50703806 1.000000
0.375716 -0.362972 0.263616 0.88909588 -0.007893 0.45765294 1.000000
0.380034 -0.356981 0.254522 0.90680463 -0.03765698 0.41986583 1.000000
0.384932 -0.350568 0.244756 0.90685997 -0.097013 0.41011398 1.000000
0.389952 -0.344181 0.235174 0.90578478 -0.09968398 0.4118459 1.000000
0.395491 -0.337789 0.224248 0.90281185 -0.05068899 0.42703793 1.000000
0.400908 -0.331272 0.213445 0.89362049 -0.02707898 0.44800574 1.000000
0.405715 -0.325348 0.204931 0.8751031 -0.038545 0.48239905 1.000000
0.415236 -0.312770 0.189031 0.85693728 -0.02222801 0.51494117 1.000000
0.419219 -0.307039 0.183324 0.83060693 -0.07762699 0.55142196 1.000000
0.422865 -0.301698 0.179388 0.78923721 -0.17649005 0.58818015 1.000000
0.430495 -0.291366 0.173223 0.78460769 -0.20356592 0.58562077 1.000000
0.440154 -0.279806 0.161413 0.86533458 -0.06582097 0.49685376 1.000000
0.050276 -0.796554 0.745733 0.87946868 -0.14257695 0.45409983 1.000000
0.045729 -0.802368 0.752111 0.8707843 -0.17846206 0.45813316 1.000000
0.055098 -0.790474 0.737829 0.8950439 -0.10395599 0.43369295 1.000000
0.060027 -0.784263 0.728735 0.90020577 -0.11979897 0.41866189 1.000000
0.064803 -0.778234 0.720464 0.89218009 -0.14697601 0.42709804 1.000000
0.069640 -0.772262 0.712713 0.88181515 -0.12305702 0.45525708 1.000000
0.083418 -0.753709 0.687414 0.88937189 -0.013093 0.45699695 1.000000
0.088042 -0.747617 0.678838 0.87526 -0.040832 0.481926 1.000000
